# .PCD v0.7 - Point Cloud Data file format
VERSION 0.7
FIELDS x y z
SIZE 4 4 4
TYPE F F F
COUNT 1 1 1
WIDTH 1253
HEIGHT 1
VIEWPOINT 0 0 0 1 0 0 0
POINTS 1253
DATA ascii
-0.064059325 0.017760001 -0.004954055
-0.066999972 0.018893335 -0.0047733337
-0.066999972 0.020346668 -0.0047733337
0.10399997 0.020742858 -0.0049942913
-0.066999972 0.021799998 -0.0047733337
0.061649151 0.022257144 -0.0047795791
0.10399997 0.022125714 -0.0049942913
-0.066999972 0.023253333 -0.0047733337
0.10499996 0.023476191 -0.0049047652
-0.058163431 0.023832383 -0.0047421828
0.061649151 0.023740953 -0.0047795791
-0.066999972 0.024706667 -0.0047733337
0.10499996 0.024857143 -0.0049047652
-0.058163431 0.025321906 -0.0047421828
0.061649151 0.025224764 -0.0047795791
-0.066999972 0.02616 -0.0047733337
0.10499996 0.026238097 -0.0049047652
-0.058163431 0.02681143 -0.0047421828
0.061649151 0.026708573 -0.0047795791
-0.066999972 0.027613332 -0.0047733337
0.10499996 0.027619047 -0.0049047652
-0.058163431 0.028300956 -0.0047421828
0.061649151 0.028192382 -0.0047795791
-0.066999972 0.029066667 -0.0047733337
0.10499996 0.029000001 -0.0049047652
-0.058163431 0.029790478 -0.0047421828
0.061649151 0.029676192 -0.0047795791
0.10499996 0.030380953 -0.0049047652
-0.066999972 0.030520001 -0.0047733337
-0.058163431 0.03128 -0.0047421828
-0.066999972 0.031973332 -0.0047733337
0.10699993 0.031674288 -0.0047257203
-0.058163431 0.032769527 -0.0047421828
-0.066999972 0.033426665 -0.0047733337
0.10699993 0.033051431 -0.0047257203
-0.066999972 0.034880001 -0.0047733337
0.10499996 0.034523807 -0.0049047652
0.10499996 0.035904761 -0.0049047652
-0.066999972 0.036333334 -0.0047733337
0.061649151 0.037095238 -0.0047795791
0.10499996 0.037285715 -0.0049047652
-0.066999972 0.03778667 -0.0047733337
0.061649151 0.03857905 -0.0047795791
0.10699993 0.038560003 -0.0047257203
-0.066999972 0.039239999 -0.0047733337
0.061649151 0.04006286 -0.0047795791
0.10499996 0.040047623 -0.0049047652
-0.066999972 0.040693335 -0.0047733337
0.10499996 0.04142857 -0.0049047652
-0.06155486 0.041546665 -0.0046162661
0.061649151 0.041546665 -0.0047795791
-0.066999972 0.042146668 -0.0047733337
0.10499996 0.042809524 -0.0049047652
-0.06155486 0.043030478 -0.0046162661
-0.066999972 0.043599997 -0.0047733337
0.10399997 0.044251427 -0.0049942913
-0.06155486 0.044514287 -0.0046162661
-0.066999972 0.045053333 -0.0047733337
-0.06155486 0.0459981 -0.0046162661
0.061649151 0.0459981 -0.0047795791
0.10399997 0.045634285 -0.0049942913
-0.066999972 0.046506666 -0.0047733337
-0.06155486 0.047481906 -0.0046162661
0.061649151 0.047481906 -0.0047795791
-0.066999972 0.047960002 -0.0047733337
-0.06155486 0.048965715 -0.0046162661
0.061649151 0.048965715 -0.0047795791
-0.066999972 0.049413335 -0.0047733337
0.061649151 0.050449528 -0.0047795791
-0.066999972 0.050866667 -0.0047733337
0.061649151 0.051933337 -0.0047795791
-0.066999972 0.05232 -0.0047733337
-0.064343728 0.052937143 -0.0045533255
-0.06155486 0.053417146 -0.0046162661
0.061649151 0.053417146 -0.0047795791
-0.066999972 0.053773336 -0.0047733337
-0.064343728 0.054407619 -0.0045533255
-0.066999972 0.055226665 -0.0047733337
-0.064343728 0.055878095 -0.0045533255
-0.066999972 0.056679998 -0.0047733337
-0.058163431 0.056601912 -0.0047421828
-0.064343728 0.057348572 -0.0045533255
-0.066999972 0.058133334 -0.0047733337
-0.058163431 0.058091432 -0.0047421828
-0.064343728 0.058819048 -0.0045533255
-0.066999972 0.059586667 -0.0047733337
-0.058163431 0.059580956 -0.0047421828
-0.064343728 0.060289524 -0.0045533255
-0.066999972 0.061040003 -0.0047733337
-0.064343728 0.061759997 -0.0045533255
-0.066999972 0.062493335 -0.0047733337
-0.064343728 0.063230477 -0.0045533255
-0.066999972 0.063946664 -0.0047733337
-0.064343728 0.064700954 -0.0045533255
0.092999935 0.06457524 -0.0045752409
-0.066999972 0.065399997 -0.0047733337
0.092999935 0.065979056 -0.0045752409
-0.064343728 0.06617143 -0.0045533255
-0.066999972 0.06685333 -0.0047733337
-0.064343728 0.067641906 -0.0045533255
0.090999961 0.067565717 -0.0047504785
-0.066999972 0.06830667 -0.0047733337
-0.058163431 0.068518102 -0.0047421828
-0.064343728 0.069112383 -0.0045533255
-0.066999972 0.069760002 -0.0047733337
-0.064343728 0.070582859 -0.0045533255
-0.066999972 0.071213335 -0.0047733337
0.063167185 0.072146669 -0.0045910645
-0.066999972 0.072666667 -0.0047733337
-0.06155486 0.07270667 -0.0046162661
-0.064343728 0.073523812 -0.0045533255
0.063167185 0.073619053 -0.0045910645
-0.066999972 0.07412 -0.0047733337
-0.057882786 0.074386671 -0.0046863966
-0.064343728 0.074994288 -0.0045533255
-0.066999972 0.07557334 -0.0047733337
-0.057882786 0.075904764 -0.0046863966
-0.064343728 0.076464765 -0.0045533255
-0.066999972 0.077026665 -0.0047733337
-0.064343728 0.077935241 -0.0045533255
-0.066999972 0.078479998 -0.0047733337
0.063999325 0.078439996 -0.004850138
-0.064343728 0.07940571 -0.0045533255
-0.066999972 0.07993333 -0.0047733337
0.063167185 0.07950858 -0.0045910645
-0.064343728 0.080876186 -0.0045533255
0.063167185 0.080980957 -0.0045910645
-0.066999972 0.08138667 -0.0047733337
0.063167185 0.082453333 -0.0045910645
-0.066999972 0.082840003 -0.0047733337
0.063167185 0.083925724 -0.0045910645
-0.066999972 0.084293336 -0.0047733337
0.060655158 0.084142864 -0.0049420763
0.060655158 0.085619047 -0.0049420763
-0.058819324 -0.0148 -0.0041218884
-0.061178967 -0.013285715 -0.0040348079
-0.061178967 -0.011809524 -0.0040348079
0.060101233 -0.0059428574 -0.0040984824
0.060101233 -0.0044571431 -0.0040984824
0.093999922 0.0056076194 -0.0044876221
0.093999922 0.0070095244 -0.0044876221
0.093999922 0.0084114289 -0.0044876221
0.095999956 0.0097866664 -0.0043123844
0.09799993 0.011154287 -0.0041371468
0.09799993 0.012548571 -0.0041371468
0.098999977 0.013923809 -0.0040495205
0.060101233 0.034171429 -0.0040984824
0.098999977 0.058479998 -0.0040495205
0.09799993 0.059954289 -0.0041371468
0.095999956 0.061516192 -0.0043123844
0.093999922 0.06308572 -0.0044876221
-0.05565045 0.06570667 -0.0043895226
0.060101233 0.075771436 -0.0040984824
0.058879323 0.08732 -0.0040179696
0.058879323 0.088799998 -0.0040179696
0.066999972 -0.011626666 -0.0039466652
-0.063534811 -0.010306667 -0.0039543174
0.063259326 -0.01036 -0.0035684146
0.068999946 -0.010146667 -0.0037790495
-0.063534811 -0.0088342866 -0.0039543174
0.063259326 -0.0088800006 -0.0035684146
0.066999972 -0.0087200003 -0.0039466652
-0.063534811 -0.0073619052 -0.0039543174
-0.063319325 -0.0074 -0.0036723334
0.063259326 -0.0074 -0.0035684146
0.066999972 -0.0072666667 -0.0039466652
-0.057499908 -0.0060800002 -0.0037527662
-0.063534811 -0.0058895242 -0.0039543174
0.066999972 -0.0058133332 -0.0039466652
-0.057499908 -0.0045600003 -0.0037527662
-0.063534811 -0.0044171433 -0.0039543174
-0.063319325 -0.0044400003 -0.0036723334
0.068999946 -0.0043485714 -0.0037790495
-0.057499908 -0.0030400001 -0.0037527662
-0.063534811 -0.0029447621 -0.0039543174
0.068999946 -0.0028990477 -0.0037790495
-0.063534811 -0.0014723811 -0.0039543174
-0.063319325 -0.00148 -0.0036723334
0.068999946 -0.0014495238 -0.0037790495
-0.063534811 0 -0.0039543174
0.068999946 0 -0.0037790495
-0.063534811 0.0014723811 -0.0039543174
0.068999946 0.0014495238 -0.0037790495
-0.063534811 0.0029447621 -0.0039543174
0.064789444 0.0029409523 -0.0037813243
-0.063534811 0.0044171433 -0.0039543174
-0.059929799 0.0044571431 -0.0038015526
-0.063534811 0.0058895242 -0.0039543174
-0.063534811 0.0073619052 -0.0039543174
-0.063534811 0.0088342866 -0.0039543174
-0.063534811 0.010306667 -0.0039543174
-0.063534811 0.013251429 -0.0039543174
-0.063534811 0.01472381 -0.0039543174
0.10099995 0.015274285 -0.0038742903
-0.063319325 0.016279999 -0.0036723334
0.10099995 0.016662857 -0.0038742903
-0.063319325 0.017760001 -0.0036723334
0.10199994 0.018026669 -0.0037866714
0.10399997 0.01936 -0.0036114263
-0.059929799 0.0208 -0.0038015526
0.10399997 0.020742858 -0.0036114263
-0.063534811 0.022085717 -0.0039543174
-0.059929799 0.022285715 -0.0038015526
0.10499996 0.022095239 -0.003523815
0.10499996 0.023476191 -0.003523815
0.10499996 0.024857143 -0.003523815
0.10499996 0.026238097 -0.003523815
0.10499996 0.027619047 -0.003523815
0.10499996 0.029000001 -0.003523815
-0.059929799 0.034171429 -0.0038015526
-0.059929799 0.035657145 -0.0038015526
-0.063534811 0.036809526 -0.0039543174
-0.059929799 0.037142858 -0.0038015526
-0.063534811 0.03975429 -0.0039543174
-0.063534811 0.041226666 -0.0039543174
0.10499996 0.04142857 -0.003523815
-0.063534811 0.04269905 -0.0039543174
0.063259326 0.042920001 -0.0035684146
0.10499996 0.042809524 -0.003523815
-0.063534811 0.044171434 -0.0039543174
0.063259326 0.044399999 -0.0035684146
0.10499996 0.044190478 -0.003523815
-0.063534811 0.04564381 -0.0039543174
0.10499996 0.045571432 -0.003523815
-0.063534811 0.047116194 -0.0039543174
0.10199994 0.047146667 -0.0037866714
-0.063534811 0.048588578 -0.0039543174
0.10199994 0.048533335 -0.0037866714
0.10199994 0.049920004 -0.0037866714
-0.063534811 0.050060954 -0.0039543174
-0.059929799 0.050514285 -0.0038015526
0.10199994 0.051306669 -0.0037866714
-0.063534811 0.051533338 -0.0039543174
-0.059929799 0.052000001 -0.0038015526
0.10099995 0.052765716 -0.0038742903
0.10099995 0.054154288 -0.0038742903
-0.059929799 0.05497143 -0.0038015526
0.063259326 0.054760002 -0.0035684146
0.10099995 0.05554286 -0.0038742903
0.063259326 0.05624 -0.0035684146
0.10099995 0.056931432 -0.0038742903
-0.059929799 0.06982857 -0.0038015526
-0.059929799 0.07131429 -0.0038015526
0.068999946 0.071026668 -0.0037790495
0.068999946 0.072476193 -0.0037790495
0.068999946 0.073925719 -0.0037790495
-0.059929799 0.074285716 -0.0038015526
0.068999946 0.075375244 -0.0037790495
-0.059929799 0.075771436 -0.0038015526
0.063259326 0.076959997 -0.0035684146
0.068999946 0.076824762 -0.0037790495
-0.059929799 0.077257141 -0.0038015526
0.069999933 0.078171432 -0.0036952454
-0.059929799 0.078742854 -0.0038015526
0.06560754 0.079714291 -0.0036357045
0.069999933 0.07961905 -0.0036952454
-0.059929799 0.080228575 -0.0038015526
0.071999967 0.080853336 -0.0035276222
0.06560754 0.081190482 -0.0036357045
-0.063534811 0.082453333 -0.0039543174
0.069999933 0.082514293 -0.0036952454
-0.063534811 0.083925724 -0.0039543174
0.069999933 0.083961904 -0.0036952454
0.061393254 0.085619047 -0.0036636572
-0.064999938 -0.011657143 -0.0031714255
0.067294806 -0.011733334 -0.0034418609
-0.066999972 -0.010173334 -0.0033200013
0.067294806 -0.010266667 -0.0034418609
-0.064999938 -0.0087428577 -0.0031714255
0.067294806 -0.0088000009 -0.0034418609
-0.064999938 -0.0072857146 -0.0031714255
0.067294806 -0.0073333336 -0.0034418609
-0.064999938 -0.0058285715 -0.0031714255
-0.060812958 -0.0059352382 -0.0033312496
0.067294806 -0.0058666668 -0.0034418609
-0.064999938 -0.0043714289 -0.0031714255
0.067294806 -0.0044000004 -0.0034418609
-0.066999972 -0.0029066666 -0.0033200013
0.067294806 -0.0029333334 -0.0034418609
-0.066999972 -0.0014533333 -0.0033200013
0.067294806 -0.0014666667 -0.0034418609
-0.066999972 0 -0.0033200013
-0.060812958 0 -0.0033312496
0.060907245 0 -0.0034945663
0.067294806 0 -0.0034418609
-0.066999972 0.0014533333 -0.0033200013
0.067294806 0.0014666667 -0.0034418609
-0.066999972 0.0029066666 -0.0033200013
-0.060812958 0.0029676191 -0.0033312496
0.067294806 0.0029333334 -0.0034418609
-0.066999972 0.0043600001 -0.0033200013
0.092999935 0.004211429 -0.0031714323
-0.066999972 0.0058133332 -0.0033200013
0.093999922 0.0056076194 -0.0030857208
-0.066999972 0.0072666667 -0.0033200013
0.092999935 0.0070190481 -0.0031714323
0.093999922 0.0084114289 -0.0030857208
-0.066999972 0.0087200003 -0.0033200013
-0.066999972 0.010173334 -0.0033200013
-0.066999972 0.011626666 -0.0033200013
-0.060812958 0.011870476 -0.0033312496
-0.066999972 0.01308 -0.0033200013
-0.068999946 0.014495239 -0.0034685696
-0.068999946 0.015944762 -0.0034685696
-0.068999946 0.017394286 -0.0034685696
-0.060812958 0.017805716 -0.0033312496
-0.066999972 0.018893335 -0.0033200013
-0.060812958 0.019289525 -0.0033312496
-0.066999972 0.020346668 -0.0033200013
-0.066999972 0.021799998 -0.0033200013
-0.066999972 0.023253333 -0.0033200013
-0.066999972 0.024706667 -0.0033200013
-0.066999972 0.02616 -0.0033200013
-0.066999972 0.027613332 -0.0033200013
-0.057418667 0.028300956 -0.0034522172
-0.066999972 0.029066667 -0.0033200013
0.10699993 0.030297145 -0.0033485773
-0.066999972 0.030520001 -0.0033200013
0.060907245 0.031160003 -0.0034945663
-0.066999972 0.031973332 -0.0033200013
0.10699993 0.031674288 -0.0033485773
0.060907245 0.03264381 -0.0034945663
-0.066999972 0.033426665 -0.0033200013
0.10699993 0.033051431 -0.0033485773
0.10699993 0.034428574 -0.0033485773
-0.066999972 0.034880001 -0.0033200013
0.060907245 0.035611432 -0.0034945663
0.10699993 0.035805713 -0.0033485773
-0.066999972 0.036333334 -0.0033200013
0.060907245 0.037095238 -0.0034945663
0.10699993 0.03718286 -0.0033485773
-0.066999972 0.03778667 -0.0033200013
-0.060812958 0.03857905 -0.0033312496
0.10699993 0.038560003 -0.0033485773
-0.066999972 0.039239999 -0.0033200013
0.10699993 0.039937146 -0.0033485773
-0.060812958 0.04006286 -0.0033312496
-0.066999972 0.040693335 -0.0033200013
-0.060812958 0.041546665 -0.0033312496
-0.066999972 0.042146668 -0.0033200013
-0.060812958 0.043030478 -0.0033312496
-0.066999972 0.043599997 -0.0033200013
-0.060812958 0.044514287 -0.0033312496
-0.066999972 0.045053333 -0.0033200013
-0.060812958 0.0459981 -0.0033312496
-0.066999972 0.046506666 -0.0033200013
-0.060812958 0.047481906 -0.0033312496
-0.066999972 0.047960002 -0.0033200013
-0.060812958 0.048965715 -0.0033312496
-0.066999972 0.049413335 -0.0033200013
-0.066999972 0.050866667 -0.0033200013
-0.066999972 0.05232 -0.0033200013
-0.060812958 0.053417146 -0.0033312496
-0.066999972 0.053773336 -0.0033200013
-0.066999972 0.055226665 -0.0033200013
-0.066999972 0.056679998 -0.0033200013
-0.057418667 0.056601912 -0.0034522172
-0.066999972 0.058133334 -0.0033200013
-0.066999972 0.059586667 -0.0033200013
-0.057418667 0.059580956 -0.0034522172
-0.066999972 0.061040003 -0.0033200013
-0.066999972 0.062493335 -0.0033200013
0.093999922 0.06308572 -0.0030857208
-0.066999972 0.063946664 -0.0033200013
-0.057418667 0.064049527 -0.0034522172
0.092999935 0.06457524 -0.0031714323
-0.066999972 0.065399997 -0.0033200013
0.092999935 0.065979056 -0.0031714323
-0.066999972 0.06685333 -0.0033200013
-0.057418667 0.067028575 -0.0034522172
0.092999935 0.067382865 -0.0031714323
-0.066999972 0.06830667 -0.0033200013
-0.065078966 0.069112383 -0.0032798555
-0.066999972 0.069760002 -0.0033200013
-0.066999972 0.071213335 -0.0033200013
-0.065078966 0.072053328 -0.0032798555
-0.066999972 0.072666667 -0.0033200013
-0.060812958 0.07270667 -0.0033312496
-0.066999972 0.07412 -0.0033200013
0.063903376 0.075091437 -0.0033159461
-0.066999972 0.07557334 -0.0033200013
-0.068999946 0.076824762 -0.0034685696
0.063903376 0.076563813 -0.0033159461
-0.068999946 0.078274287 -0.0034685696
0.063903376 0.078036197 -0.0033159461
-0.068999946 0.079723813 -0.0034685696
0.063903376 0.07950858 -0.0033159461
0.063903376 0.080980957 -0.0033159461
-0.068999946 0.081173338 -0.0034685696
-0.068999946 0.082622863 -0.0034685696
-0.068999946 0.084072381 -0.0034685696
-0.059559323 -0.0148 -0.0028401725
-0.061917067 -0.013285715 -0.0027563833
-0.061917067 -0.011809524 -0.0027563833
-0.058816269 -0.0060800002 -0.002992766
-0.058816269 -0.0045600003 -0.002992766
-0.064271003 0.0014723811 -0.0026792008
-0.064271003 0.0044171433 -0.0026792008
-0.059186943 0.0059428574 -0.0025148876
0.095999956 0.0097866664 -0.0029142904
0.09799993 0.011154287 -0.00274286
-0.061917067 0.011809524 -0.0027563833
0.098999977 0.012531429 -0.0026571411
0.098999977 0.013923809 -0.0026571411
-0.061917067 0.016238095 -0.0027563833
-0.061917067 0.017714286 -0.0027563833
-0.061917067 0.019190477 -0.0027563833
-0.061917067 0.020666666 -0.0027563833
-0.059186943 0.0208 -0.0025148876
-0.059186943 0.022285715 -0.0025148876
-0.061917067 0.023619048 -0.0027563833
-0.059186943 0.023771429 -0.0025148876
-0.061917067 0.025095237 -0.0027563833
-0.059186943 0.025257142 -0.0025148876
-0.061917067 0.02657143 -0.0027563833
-0.059186943 0.026742859 -0.0025148876
-0.061917067 0.028047619 -0.0027563833
-0.061917067 0.02952381 -0.0027563833
-0.059186943 0.029714286 -0.0025148876
-0.061917067 0.031000003 -0.0027563833
-0.059186943 0.031200001 -0.0025148876
-0.061917067 0.03247619 -0.0027563833
-0.059186943 0.032685712 -0.0025148876
-0.061917067 0.033952381 -0.0027563833
-0.061917067 0.035428572 -0.0027563833
-0.061917067 0.038380954 -0.0027563833
-0.064271003 0.044171434 -0.0026792008
-0.064271003 0.04564381 -0.0026792008
-0.059186943 0.047542859 -0.0025148876
-0.064271003 0.048588578 -0.0026792008
-0.059186943 0.049028575 -0.0025148876
-0.064271003 0.050060954 -0.0026792008
-0.059186943 0.050514285 -0.0025148876
-0.064271003 0.051533338 -0.0026792008
-0.059186943 0.052000001 -0.0025148876
-0.064271003 0.053005718 -0.0026792008
-0.059186943 0.053485718 -0.0025148876
-0.064271003 0.054478098 -0.0026792008
-0.059186943 0.05497143 -0.0025148876
-0.064271003 0.055950481 -0.0026792008
-0.064271003 0.057422861 -0.0026792008
-0.059186943 0.05794286 -0.0025148876
0.098999977 0.058479998 -0.0026571411
-0.064271003 0.058895241 -0.0026792008
0.09799993 0.059954289 -0.00274286
-0.064271003 0.060367625 -0.0026792008
-0.059186943 0.060914289 -0.0025148876
0.09799993 0.06134858 -0.00274286
-0.064271003 0.061840005 -0.0026792008
-0.059186943 0.062400002 -0.0025148876
-0.064271003 0.063312382 -0.0026792008
-0.064271003 0.064784765 -0.0026792008
-0.064271003 0.066257149 -0.0026792008
-0.064271003 0.067729525 -0.0026792008
-0.059186943 0.068342857 -0.0025148876
-0.064271003 0.070674293 -0.0026792008
-0.064271003 0.073619053 -0.0026792008
-0.059186943 0.074285716 -0.0025148876
-0.064271003 0.075091437 -0.0026792008
-0.059186943 0.075771436 -0.0025148876
-0.059186943 0.077257141 -0.0025148876
-0.064271003 0.078036197 -0.0026792008
-0.059186943 0.078742854 -0.0025148876
-0.064271003 0.07950858 -0.0026792008
-0.059186943 0.080228575 -0.0025148876
-0.064271003 0.080980957 -0.0026792008
0.059619322 0.08732 -0.0027362499
0.059619322 0.088799998 -0.0027362499
0.066999972 -0.011626666 -0.0024933363
0.068028137 -0.010266667 -0.0021716915
0.068999946 -0.010146667 -0.0023295316
0.062519327 -0.0088800006 -0.0022866987
0.066999972 -0.0087200003 -0.0024933363
0.068028137 -0.0088000009 -0.0021716915
-0.062579319 -0.0074 -0.0023906175
0.062519327 -0.0074 -0.0022866987
0.068028137 -0.0073333336 -0.0021716915
0.068999946 -0.0072476193 -0.0023295316
-0.060071051 -0.0059352382 -0.002046233
0.060165346 -0.0059352382 -0.0022095535
0.068028137 -0.0058666668 -0.0021716915
0.068999946 -0.0057980954 -0.0023295316
-0.062579319 -0.0044400003 -0.0023906175
0.068028137 -0.0044000004 -0.0021716915
0.068999946 -0.0043485714 -0.0023295316
-0.062579319 -0.00296 -0.0023906175
-0.060071051 -0.0029676191 -0.002046233
0.062519327 -0.00296 -0.0022866987
0.068999946 -0.0028990477 -0.0023295316
-0.062579319 -0.00148 -0.0023906175
-0.060071051 -0.0014838096 -0.002046233
0.062519327 -0.00148 -0.0022866987
0.068999946 -0.0014495238 -0.0023295316
-0.060071051 0 -0.002046233
0.060165346 0 -0.0022095535
0.068999946 0 -0.0023295316
-0.062579319 0.00148 -0.0023906175
-0.060071051 0.0014838096 -0.002046233
0.066999972 0.0014533333 -0.0024933363
-0.060071051 0.0029676191 -0.002046233
-0.060071051 0.004451429 -0.002046233
-0.060071051 0.0074190479 -0.002046233
-0.060071051 0.008902858 -0.002046233
-0.060071051 0.010386666 -0.002046233
-0.062579319 0.01332 -0.0023906175
-0.068999946 0.014495239 -0.0020190442
-0.062579319 0.0148 -0.0023906175
0.10099995 0.015274285 -0.0024857144
-0.068999946 0.015944762 -0.0020190442
-0.062579319 0.016279999 -0.0023906175
0.062519327 0.016279999 -0.0022866987
0.10199994 0.01664 -0.0024000029
-0.068999946 0.017394286 -0.0020190442
-0.060071051 0.017805716 -0.002046233
0.062519327 0.017760001 -0.0022866987
0.10399997 0.017977143 -0.0022285762
-0.060071051 0.019289525 -0.002046233
0.062519327 0.019239999 -0.0022866987
0.10399997 0.01936 -0.0022285762
-0.068999946 0.020293334 -0.0020190442
0.062519327 0.020719999 -0.0022866987
0.10499996 0.020714285 -0.0021428573
-0.068999946 0.021742858 -0.0020190442
0.062519327 0.0222 -0.0022866987
0.10499996 0.022095239 -0.0021428573
-0.068999946 0.023192381 -0.0020190442
0.10499996 0.023476191 -0.0021428573
0.062519327 0.02368 -0.0022866987
-0.068999946 0.024641905 -0.0020190442
0.10499996 0.024857143 -0.0021428573
0.062519327 0.025160002 -0.0022866987
-0.068999946 0.02609143 -0.0020190442
0.062519327 0.02664 -0.0022866987
-0.068999946 0.027540954 -0.0020190442
0.062519327 0.02812 -0.0022866987
-0.068999946 0.028990477 -0.0020190442
0.062519327 0.0296 -0.0022866987
-0.068999946 0.030440001 -0.0020190442
-0.060071051 0.034127623 -0.002046233
-0.060071051 0.035611432 -0.002046233
-0.060071051 0.037095238 -0.002046233
0.062519327 0.038479999 -0.0022866987
-0.060071051 0.03857905 -0.002046233
0.062519327 0.039960001 -0.0022866987
-0.060071051 0.04006286 -0.002046233
0.062519327 0.041439999 -0.0022866987
-0.060071051 0.041546665 -0.002046233
0.062519327 0.042920001 -0.0022866987
0.10499996 0.042809524 -0.0021428573
-0.060071051 0.043030478 -0.002046233
0.062519327 0.044399999 -0.0022866987
0.10499996 0.044190478 -0.0021428573
-0.060071051 0.044514287 -0.002046233
-0.060071051 0.0459981 -0.002046233
0.062519327 0.045880001 -0.0022866987
0.10499996 0.045571432 -0.0021428573
0.062519327 0.047359999 -0.0022866987
0.10399997 0.047017142 -0.0022285762
0.062519327 0.048840001 -0.0022866987
0.10199994 0.048533335 -0.0024000029
0.10199994 0.049920004 -0.0024000029
0.062519327 0.050320003 -0.0022866987
0.10199994 0.051306669 -0.0024000029
0.062519327 0.051799998 -0.0022866987
0.10199994 0.052693337 -0.0024000029
0.062519327 0.05328 -0.0022866987
0.10199994 0.054080002 -0.0024000029
0.10199994 0.055466671 -0.0024000029
0.10099995 0.056931432 -0.0024857144
0.062519327 0.0592 -0.0022866987
-0.056673907 0.059580956 -0.0021622535
-0.068999946 0.062329531 -0.0020190442
-0.068999946 0.063779049 -0.0020190442
-0.056673907 0.064049527 -0.0021622535
-0.068999946 0.065228574 -0.0020190442
-0.056673907 0.065539055 -0.0021622535
-0.060071051 0.069739051 -0.002046233
-0.060071051 0.071222864 -0.002046233
0.066999972 0.071213335 -0.0024933363
0.062131345 0.072333336 -0.0023852419
0.068999946 0.072476193 -0.0023295316
-0.060071051 0.07270667 -0.002046233
0.062131345 0.073809519 -0.0023852419
0.068999946 0.073925719 -0.0023295316
0.068999946 0.075375244 -0.0023295316
-0.068999946 0.076824762 -0.0020190442
0.068999946 0.076824762 -0.0023295316
-0.068999946 0.078274287 -0.0020190442
0.064869449 0.078238092 -0.0023572855
0.069999933 0.078171432 -0.0022476199
0.071999967 0.079409525 -0.0020838114
-0.068999946 0.079723813 -0.0020190442
0.064869449 0.079714291 -0.0023572855
0.071999967 0.080853336 -0.0020838114
-0.068999946 0.081173338 -0.0020190442
0.064869449 0.081190482 -0.0023572855
-0.068999946 0.082622863 -0.0020190442
0.062131345 0.082666665 -0.0023852419
0.062131345 0.084142864 -0.0023852419
0.062131345 0.085619047 -0.0023852419
-0.060299322 -0.0148 -0.0015584566
-0.064999938 -0.011657143 -0.0017142819
-0.066999972 -0.010173334 -0.0018666649
-0.064999938 -0.0087428577 -0.0017142819
-0.064999938 -0.0072857146 -0.0017142819
-0.064999938 -0.0058285715 -0.0017142819
-0.064999938 -0.0043714289 -0.0017142819
-0.066999972 -0.0029066666 -0.0018666649
-0.066999972 -0.0014533333 -0.0018666649
-0.066999972 0 -0.0018666649
-0.066999972 0.0014533333 -0.0018666649
-0.066999972 0.0029066666 -0.0018666649
0.090999961 0.0028152382 -0.0019352431
-0.066999972 0.0043600001 -0.0018666649
0.092999935 0.004211429 -0.0017676237
-0.066999972 0.0058133332 -0.0018666649
0.092999935 0.0056152386 -0.0017676237
-0.066999972 0.0072666667 -0.0018666649
0.092999935 0.0070190481 -0.0017676237
0.093999922 0.0084114289 -0.0016838158
-0.066999972 0.0087200003 -0.0018666649
0.095999956 0.0097866664 -0.0015161927
-0.066999972 0.010173334 -0.0018666649
-0.066999972 0.011626666 -0.0018666649
-0.066999972 0.01308 -0.0018666649
-0.066999972 0.018893335 -0.0018666649
0.10699993 0.026165716 -0.0019714343
0.10699993 0.027542859 -0.0019714343
0.10699993 0.02892 -0.0019714343
0.10699993 0.030297145 -0.0019714343
-0.066999972 0.031973332 -0.0018666649
0.10699993 0.031674288 -0.0019714343
-0.066999972 0.033426665 -0.0018666649
0.10699993 0.033051431 -0.0019714343
0.10699993 0.034428574 -0.0019714343
-0.066999972 0.034880001 -0.0018666649
0.10699993 0.035805713 -0.0019714343
-0.066999972 0.036333334 -0.0018666649
0.10699993 0.03718286 -0.0019714343
-0.066999972 0.03778667 -0.0018666649
0.10699993 0.038560003 -0.0019714343
-0.066999972 0.039239999 -0.0018666649
0.10699993 0.039937146 -0.0019714343
-0.066999972 0.040693335 -0.0018666649
0.10699993 0.041314289 -0.0019714343
-0.066999972 0.042146668 -0.0018666649
-0.066999972 0.043599997 -0.0018666649
-0.066999972 0.045053333 -0.0018666649
-0.066999972 0.046506666 -0.0018666649
-0.066999972 0.047960002 -0.0018666649
-0.066999972 0.049413335 -0.0018666649
-0.066999972 0.050866667 -0.0018666649
-0.066999972 0.05232 -0.0018666649
-0.066999972 0.053773336 -0.0018666649
-0.066999972 0.055226665 -0.0018666649
-0.066999972 0.056679998 -0.0018666649
-0.066999972 0.058133334 -0.0018666649
-0.066999972 0.059586667 -0.0018666649
-0.066999972 0.061040003 -0.0018666649
0.095999956 0.061516192 -0.0015161927
0.093999922 0.06308572 -0.0016838158
0.092999935 0.06457524 -0.0017676237
0.093999922 0.06588953 -0.0016838158
-0.066999972 0.06685333 -0.0018666649
0.092999935 0.067382865 -0.0017676237
-0.066999972 0.06830667 -0.0018666649
-0.066999972 0.069760002 -0.0018666649
-0.066999972 0.071213335 -0.0018666649
-0.066999972 0.072666667 -0.0018666649
-0.066999972 0.07412 -0.0018666649
-0.066999972 0.07557334 -0.0018666649
0.073999941 0.082080007 -0.0019200068
0.073999941 0.083520003 -0.0019200068
0.066999972 -0.011626666 -0.0010400038
-0.062655158 -0.010333333 -0.0014779698
0.064131349 -0.010333333 -0.0010788664
-0.064345635 -0.0088571431 -0.0014500152
-0.062655158 -0.0088571431 -0.0014779698
0.061779328 -0.0088800006 -0.0010049827
0.066999972 -0.0087200003 -0.0010400038
-0.062655158 -0.0073809526 -0.0014779698
-0.061839323 -0.0074 -0.0011089016
0.061779328 -0.0074 -0.0010049827
0.066999972 -0.0072666667 -0.0010400038
-0.062655158 -0.0059047621 -0.0014779698
0.066999972 -0.0058133332 -0.0010400038
-0.062655158 -0.0044285716 -0.0014779698
-0.061839323 -0.0044400003 -0.0011089016
0.061779328 -0.0044400003 -0.0010049827
-0.062655158 -0.002952381 -0.0014779698
0.066259921 -0.0029409523 -0.0012343861
-0.062655158 -0.0014761905 -0.0014779698
0.066259921 -0.0014704762 -0.0012343861
-0.062655158 0 -0.0014779698
0.066259921 0 -0.0012343861
-0.065007187 0.0014723811 -0.0014040861
0.066259921 0.0014704762 -0.0012343861
0.066999972 0.0014533333 -0.0010400038
-0.062655158 0.002952381 -0.0014779698
-0.062655158 0.0059047621 -0.0014779698
-0.062655158 0.0073809526 -0.0014779698
-0.062655158 0.0088571431 -0.0014779698
-0.062655158 0.010333333 -0.0014779698
0.098999977 0.011139047 -0.0012647653
-0.062655158 0.011809524 -0.0014779698
-0.061839323 0.01184 -0.0011089016
0.098999977 0.012531429 -0.0012647653
-0.062655158 0.013285715 -0.0014779698
-0.061839323 0.01332 -0.0011089016
0.10099995 0.013885715 -0.0010971421
-0.062655158 0.014761905 -0.0014779698
-0.061839323 0.0148 -0.0011089016
0.061779328 0.0148 -0.0010049827
0.10099995 0.015274285 -0.0010971421
-0.062655158 0.016238095 -0.0014779698
-0.061839323 0.016279999 -0.0011089016
0.061779328 0.016279999 -0.0010049827
0.10199994 0.01664 -0.001013338
-0.062655158 0.017714286 -0.0014779698
0.061779328 0.017760001 -0.0010049827
-0.062655158 0.019190477 -0.0014779698
0.061779328 0.019239999 -0.0010049827
-0.062655158 0.020666666 -0.0014779698
0.061779328 0.020719999 -0.0010049827
-0.062655158 0.022142859 -0.0014779698
-0.058444083 0.022285715 -0.0012282189
-0.062655158 0.023619048 -0.0014779698
-0.058444083 0.023771429 -0.0012282189
-0.062655158 0.025095237 -0.0014779698
-0.058444083 0.025257142 -0.0012282189
0.061779328 0.025160002 -0.0010049827
-0.062655158 0.02657143 -0.0014779698
-0.058444083 0.026742859 -0.0012282189
0.061779328 0.02664 -0.0010049827
-0.062655158 0.028047619 -0.0014779698
-0.058444083 0.028228572 -0.0012282189
0.061779328 0.02812 -0.0010049827
-0.062655158 0.02952381 -0.0014779698
0.061779328 0.0296 -0.0010049827
-0.062655158 0.031000003 -0.0014779698
0.061779328 0.031079998 -0.0010049827
-0.062655158 0.03247619 -0.0014779698
0.061779328 0.032559998 -0.0010049827
-0.062655158 0.033952381 -0.0014779698
0.061779328 0.03404 -0.0010049827
-0.062655158 0.035428572 -0.0014779698
0.061779328 0.035520002 -0.0010049827
-0.062655158 0.03690476 -0.0014779698
0.061779328 0.037 -0.0010049827
-0.062655158 0.038380954 -0.0014779698
-0.062655158 0.039857145 -0.0014779698
-0.062655158 0.041333333 -0.0014779698
-0.062655158 0.042809524 -0.0014779698
-0.062655158 0.047238097 -0.0014779698
-0.058444083 0.047542859 -0.0012282189
-0.058444083 0.050514285 -0.0012282189
-0.058444083 0.052000001 -0.0012282189
0.10199994 0.052693337 -0.001013338
-0.058444083 0.053485718 -0.0012282189
0.10199994 0.054080002 -0.001013338
-0.058444083 0.05497143 -0.0012282189
0.064131349 0.054619048 -0.0010788664
0.10199994 0.055466671 -0.001013338
-0.058444083 0.056457143 -0.0012282189
0.064131349 0.056095239 -0.0010788664
0.10099995 0.056931432 -0.0010971421
-0.058444083 0.05794286 -0.0012282189
0.064131349 0.057571433 -0.0010788664
0.098999977 0.058479998 -0.0012647653
0.09799993 0.059954289 -0.0013485806
-0.058444083 0.060914289 -0.0012282189
-0.058444083 0.062400002 -0.0012282189
-0.058444083 0.066857144 -0.0012282189
-0.058444083 0.068342857 -0.0012282189
-0.065007187 0.069201909 -0.0014040861
0.066999972 0.071213335 -0.0010400038
0.062869444 0.072333336 -0.001106821
0.062869444 0.073809519 -0.001106821
-0.058444083 0.074285716 -0.0012282189
0.062869444 0.075285718 -0.001106821
-0.062655158 0.076761909 -0.0014779698
0.062869444 0.076761909 -0.001106821
0.064131349 0.076761909 -0.0010788664
0.062869444 0.078238092 -0.001106821
0.062869444 0.079714291 -0.001106821
0.062869444 0.081190482 -0.001106821
-0.062655158 0.082666665 -0.0014779698
0.062869444 0.082666665 -0.001106821
-0.062655158 0.084142864 -0.0014779698
0.062869444 0.084142864 -0.001106821
0.062869444 0.085619047 -0.001106821
0.068999946 -0.010146667 -0.00088000263
0.068999946 -0.0043485714 -0.00088000263
-0.059329145 -0.0029676191 -0.00076121651
0.068999946 -0.0028990477 -0.00088000263
-0.059329145 -0.0014838096 -0.00076121651
0.068999946 -0.0014495238 -0.00088000263
-0.059329145 0 -0.00076121651
0.068999946 0 -0.00088000263
-0.059329145 0.0014838096 -0.00076121651
0.06537576 0.0029447621 -0.00076570921
0.090999961 0.0028152382 -0.00052761985
-0.059329145 0.004451429 -0.00076121651
-0.059329145 0.0059352382 -0.00076121651
-0.059329145 0.008902858 -0.00076121651
-0.068999946 0.014495239 -0.00056951877
-0.068999946 0.015944762 -0.00056951877
-0.068999946 0.017394286 -0.00056951877
-0.059329145 0.017805716 -0.00076121651
0.10399997 0.017977143 -0.00084571482
-0.068999946 0.018843811 -0.00056951877
-0.059329145 0.019289525 -0.00076121651
0.10399997 0.01936 -0.00084571482
-0.068999946 0.020293334 -0.00056951877
-0.059329145 0.020773333 -0.00076121651
0.10499996 0.020714285 -0.00076190697
-0.068999946 0.021742858 -0.00056951877
0.10499996 0.022095239 -0.00076190697
-0.068999946 0.023192381 -0.00056951877
0.10499996 0.023476191 -0.00076190697
-0.068999946 0.024641905 -0.00056951877
0.10699993 0.024788573 -0.00059429125
0.10699993 0.026165716 -0.00059429125
-0.068999946 0.027540954 -0.00056951877
0.10699993 0.027542859 -0.00059429125
-0.068999946 0.028990477 -0.00056951877
0.10699993 0.02892 -0.00059429125
-0.059329145 0.029676192 -0.00076121651
-0.068999946 0.030440001 -0.00056951877
0.10699993 0.030297145 -0.00059429125
0.10699993 0.031674288 -0.00059429125
-0.059329145 0.03264381 -0.00076121651
0.10699993 0.033051431 -0.00059429125
-0.059329145 0.034127623 -0.00076121651
0.10699993 0.034428574 -0.00059429125
0.10699993 0.035805713 -0.00059429125
0.10203685 0.03674667 -0.00073313713
-0.059329145 0.037095238 -0.00076121651
0.10699993 0.03718286 -0.00059429125
0.10203685 0.03816 -0.00073313713
-0.059329145 0.03857905 -0.00076121651
0.10699993 0.038560003 -0.00059429125
0.10699993 0.039937146 -0.00059429125
-0.059329145 0.04006286 -0.00076121651
0.10699993 0.041314289 -0.00059429125
-0.059329145 0.041546665 -0.00076121651
0.10699993 0.042691432 -0.00059429125
-0.059329145 0.043030478 -0.00076121651
0.10699993 0.044068575 -0.00059429125
-0.059329145 0.044514287 -0.00076121651
-0.059329145 0.0459981 -0.00076121651
0.10499996 0.045571432 -0.00076190697
0.10499996 0.046952382 -0.00076190697
0.10399997 0.0484 -0.00084571482
-0.059329145 0.048965715 -0.00076121651
0.10399997 0.049782857 -0.00084571482
0.10399997 0.051165711 -0.00084571482
-0.068999946 0.062329531 -0.00056951877
-0.068999946 0.063779049 -0.00056951877
-0.068999946 0.065228574 -0.00056951877
0.068999946 0.072476193 -0.00088000263
-0.059329145 0.07270667 -0.00076121651
0.068999946 0.073925719 -0.00088000263
0.068999946 0.075375244 -0.00088000263
-0.059329145 0.075674295 -0.00076121651
-0.068999946 0.076824762 -0.00056951877
0.068999946 0.076824762 -0.00088000263
-0.059329145 0.077158101 -0.00076121651
-0.068999946 0.078274287 -0.00056951877
0.069999933 0.078171432 -0.00080000574
-0.059329145 0.078641906 -0.00076121651
-0.068999946 0.079723813 -0.00056951877
0.069999933 0.07961905 -0.00080000574
0.071999967 0.080853336 -0.00064000074
-0.069999933 0.081066668 -0.00064761576
-0.071999967 0.082297146 -0.000803806
-0.071999967 0.08374095 -0.000803806
0.058587242 0.087544769 -0.00052380003
0.058587242 0.089028575 -0.00052380003
-0.061039321 -0.0148 -0.00027674064
-0.061039321 -0.01332 -0.00027674064
-0.066999972 -0.011626666 -0.00041333225
-0.061039321 -0.01184 -0.00027674064
-0.066999972 -0.010173334 -0.00041333225
-0.063607544 -0.010333333 -0.00017159991
-0.066999972 -0.0087200003 -0.00041333225
-0.063607544 -0.0088571431 -0.00017159991
-0.063393258 -0.0088571431 -0.00019955263
-0.066999972 -0.0072666667 -0.00041333225
-0.063393258 -0.0073809526 -0.00019955263
-0.064999938 -0.0058285715 -0.00025713828
-0.066999972 -0.0043600001 -0.00041333225
-0.066999972 -0.0029066666 -0.00041333225
-0.063393258 -0.002952381 -0.00019955263
-0.066999972 -0.0014533333 -0.00041333225
-0.063393258 -0.0014761905 -0.00019955263
-0.066999972 0 -0.00041333225
-0.063393258 0 -0.00019955263
-0.066999972 0.0014533333 -0.00041333225
-0.066999972 0.0029066666 -0.00041333225
-0.063393258 0.002952381 -0.00019955263
-0.066999972 0.0043600001 -0.00041333225
-0.063393258 0.0044285716 -0.00019955263
0.092999935 0.004211429 -0.00036381508
-0.066999972 0.0058133332 -0.00041333225
-0.063393258 0.0059047621 -0.00019955263
0.092999935 0.0056152386 -0.00036381508
-0.066999972 0.0072666667 -0.00041333225
-0.063393258 0.0073809526 -0.00019955263
0.092999935 0.0070190481 -0.00036381508
0.093999922 0.0084114289 -0.00028191085
-0.066999972 0.0087200003 -0.00041333225
-0.063393258 0.0088571431 -0.00019955263
-0.066999972 0.010173334 -0.00041333225
-0.063393258 0.010333333 -0.00019955263
-0.066999972 0.011626666 -0.00041333225
-0.063393258 0.011809524 -0.00019955263
-0.066999972 0.01308 -0.00041333225
-0.063393258 0.013285715 -0.00019955263
-0.063393258 0.014761905 -0.00019955263
-0.063393258 0.016238095 -0.00019955263
-0.063393258 0.017714286 -0.00019955263
-0.063393258 0.019190477 -0.00019955263
-0.063393258 0.020666666 -0.00019955263
-0.063393258 0.022142859 -0.00019955263
-0.066999972 0.02616 -0.00041333225
-0.063393258 0.028047619 -0.00019955263
-0.066999972 0.031973332 -0.00041333225
-0.066999972 0.033426665 -0.00041333225
-0.066999972 0.034880001 -0.00041333225
-0.066999972 0.036333334 -0.00041333225
-0.066999972 0.03778667 -0.00041333225
-0.066999972 0.039239999 -0.00041333225
-0.063393258 0.039857145 -0.00019955263
-0.066999972 0.040693335 -0.00041333225
-0.063393258 0.041333333 -0.00019955263
-0.066999972 0.042146668 -0.00041333225
-0.063393258 0.042809524 -0.00019955263
-0.066999972 0.043599997 -0.00041333225
-0.063393258 0.044285718 -0.00019955263
-0.066999972 0.045053333 -0.00041333225
-0.063393258 0.045761906 -0.00019955263
-0.066999972 0.046506666 -0.00041333225
-0.063393258 0.047238097 -0.00019955263
-0.066999972 0.047960002 -0.00041333225
-0.063393258 0.048714288 -0.00019955263
-0.066999972 0.049413335 -0.00041333225
-0.063393258 0.050190475 -0.00019955263
-0.066999972 0.050866667 -0.00041333225
-0.063393258 0.05166667 -0.00019955263
-0.066999972 0.05232 -0.00041333225
-0.063393258 0.053142861 -0.00019955263
-0.066999972 0.053773336 -0.00041333225
-0.063393258 0.054619048 -0.00019955263
-0.066999972 0.055226665 -0.00041333225
-0.063393258 0.056095239 -0.00019955263
-0.066999972 0.056679998 -0.00041333225
-0.063393258 0.057571433 -0.00019955263
-0.066999972 0.058133334 -0.00041333225
-0.063393258 0.059047621 -0.00019955263
-0.066999972 0.059586667 -0.00041333225
-0.063393258 0.060523812 -0.00019955263
-0.066999972 0.061040003 -0.00041333225
0.095999956 0.061516192 -0.00011809491
-0.063393258 0.062000006 -0.00019955263
-0.063393258 0.06347619 -0.00019955263
0.093999922 0.06308572 -0.00028191085
-0.063393258 0.064952381 -0.00019955263
0.092999935 0.06457524 -0.00036381508
0.092999935 0.065979056 -0.00036381508
-0.063393258 0.066428572 -0.00019955263
-0.066999972 0.06685333 -0.00041333225
0.092999935 0.067382865 -0.00036381508
-0.063393258 0.067904763 -0.00019955263
-0.066999972 0.06830667 -0.00041333225
-0.066999972 0.069760002 -0.00041333225
-0.063393258 0.070857145 -0.00019955263
-0.066999972 0.071213335 -0.00041333225
0.061099324 0.071040004 -0.00017281622
-0.063393258 0.072333336 -0.00019955263
-0.066999972 0.072666667 -0.00041333225
-0.063393258 0.073809519 -0.00019955263
-0.066999972 0.07412 -0.00041333225
-0.063393258 0.075285718 -0.00019955263
-0.066999972 0.07557334 -0.00041333225
-0.063393258 0.076761909 -0.00019955263
-0.063393258 0.078238092 -0.00019955263
-0.063393258 0.079714291 -0.00019955263
-0.063393258 0.081190482 -0.00019955263
0.073999941 0.082080007 -0.00048000697
0.073999941 0.083520003 -0.00048000697
0.063393258 -0.010333333 0.00019955263
0.066995159 -0.010293334 3.9083883e-05
0.066995159 -0.0088228574 3.9083883e-05
0.069494806 -0.0088000009 0.000368651
-0.061099324 -0.0074 0.00017281622
0.066995159 -0.007352381 3.9083883e-05
-0.061099324 -0.0059199999 0.00017281622
-0.061099324 -0.0044400003 0.00017281622
0.063393258 -0.002952381 0.00019955263
0.063393258 -0.0014761905 0.00019955263
9.0908554e-28 9.0908554e-28 9.0908554e-28
0.061039321 0 0.00027674064
0.066995159 0 3.9083883e-05
0.066999972 0.0014533333 0.00041333248
-0.061099324 0.00296 0.00017281622
-0.061099324 0.0074 0.00017281622
0.09799993 0.0097600007 4.5709839e-05
-0.061099324 0.01036 0.00017281622
0.098999977 0.011139047 0.00012761781
-0.061099324 0.01184 0.00017281622
0.098999977 0.012531429 0.00012761781
-0.061099324 0.01332 0.00017281622
0.10099995 0.013885715 0.00029142629
-0.061099324 0.0148 0.00017281622
0.10099995 0.015274285 0.00029142629
-0.061099324 0.016279999 0.00017281622
0.10199994 0.01664 0.00037332679
0.063393258 0.022142859 0.00019955263
0.10133018 0.022613334 0.00049085543
0.063393258 0.023619048 0.00019955263
0.10133018 0.024026668 0.00049085543
0.10133018 0.025440002 0.00049085543
0.10133018 0.026853334 0.00049085543
-0.061099324 0.031079998 0.00017281622
0.10133018 0.032506671 0.00049085543
-0.061099324 0.035520002 0.00017281622
0.063393258 0.038380954 0.00019955263
0.063393258 0.039857145 0.00019955263
0.063393258 0.041333333 0.00019955263
0.063393258 0.042809524 0.00019955263
0.063393258 0.044285718 0.00019955263
0.063393258 0.045761906 0.00019955263
0.063393258 0.047238097 0.00019955263
-0.057701226 0.047542859 5.8447942e-05
0.063393258 0.048714288 0.00019955263
0.063393258 0.050190475 0.00019955263
-0.057701226 0.052000001 5.8447942e-05
0.063393258 0.05166667 0.00019955263
0.10199994 0.052693337 0.00037332679
0.063393258 0.053142861 0.00019955263
0.10199994 0.054080002 0.00037332679
0.10199994 0.055466671 0.00037332679
-0.057701226 0.056457143 5.8447942e-05
0.10099995 0.056931432 0.00029142629
-0.057701226 0.05794286 5.8447942e-05
0.098999977 0.058479998 0.00012761781
-0.057701226 0.059428573 5.8447942e-05
0.09799993 0.059954289 4.5709839e-05
0.063607544 0.069380954 0.00017159991
-0.061099324 0.069559999 0.00017281622
-0.061099324 0.071040004 0.00017281622
0.063607544 0.072333336 0.00017159991
0.063607544 0.073809519 0.00017159991
0.063607544 0.075285718 0.00017159991
0.063607544 0.076761909 0.00017159991
0.063607544 0.078238092 0.00017159991
0.065743387 0.078036197 0.00012895837
-0.061099324 0.079920001 0.00017281622
0.063607544 0.079714291 0.00017159991
0.065743387 0.07950858 0.00012895837
0.065743387 0.080980957 0.00012895837
-0.061099324 0.0814 0.00017281622
0.063607544 0.081190482 0.00017159991
0.065743387 0.082453333 0.00012895837
0.063393258 0.082666665 0.00019955263
0.063393258 0.084142864 0.00019955263
0.068999946 -0.010146667 0.000569519
0.068999946 -0.0086971428 0.000569519
0.068999946 -0.0072476193 0.000569519
0.066111952 -0.0058895242 0.00050941296
0.068999946 -0.0057980954 0.000569519
0.066111952 -0.0044171433 0.00050941296
0.068999946 -0.0043485714 0.000569519
-0.058587242 -0.0029676191 0.00052380003
0.066111952 -0.0029447621 0.00050941296
0.068999946 -0.0028990477 0.000569519
0.066111952 -0.0014723811 0.00050941296
0.068999946 -0.0014495238 0.000569519
-0.058587242 0 0.00052380003
0.068999946 0 0.000569519
0.066111952 0.0014723811 0.00050941296
0.066111952 0.0029447621 0.00050941296
0.090999961 0.0028152382 0.00087999972
0.090999961 0.0042228573 0.00087999972
0.090999961 0.0056304764 0.00087999972
-0.068999946 0.014495239 0.00088000286
-0.068999946 0.015944762 0.00088000286
0.10399997 0.017977143 0.00053714274
0.10399997 0.01936 0.00053714274
-0.068999946 0.020293334 0.00088000286
0.10499996 0.020714285 0.00061904697
-0.068999946 0.021742858 0.00088000286
-0.058587242 0.022257144 0.00052380003
0.10499996 0.022095239 0.00061904697
-0.068999946 0.023192381 0.00088000286
0.10499996 0.023476191 0.00061904697
0.10499996 0.024857143 0.00061904697
0.10699993 0.026165716 0.00078285171
-0.068999946 0.027540954 0.00088000286
0.10699993 0.027542859 0.00078285171
-0.068999946 0.028990477 0.00088000286
0.10699993 0.02892 0.00078285171
0.10699993 0.030297145 0.00078285171
0.10699993 0.031674288 0.00078285171
0.10699993 0.033051431 0.00078285171
0.10361845 0.033828571 0.00052752346
0.10699993 0.034428574 0.00078285171
0.10361845 0.035238095 0.00052752346
0.10699993 0.035805713 0.00078285171
0.10699993 0.03718286 0.00078285171
0.10699993 0.038560003 0.00078285171
0.10699993 0.039937146 0.00078285171
-0.058587242 0.04006286 0.00052380003
0.10699993 0.041314289 0.00078285171
-0.058587242 0.041546665 0.00052380003
0.10699993 0.042691432 0.00078285171
-0.058587242 0.043030478 0.00052380003
0.10699993 0.044068575 0.00078285171
0.10699993 0.045445714 0.00078285171
-0.058587242 0.0459981 0.00052380003
0.10499996 0.046952382 0.00061904697
0.10499996 0.048333332 0.00061904697
-0.058587242 0.048965715 0.00052380003
0.10499996 0.049714286 0.00061904697
-0.058587242 0.050449528 0.00052380003
0.10399997 0.051165711 0.00053714274
-0.058587242 0.053417146 0.00052380003
-0.058587242 0.054900955 0.00052380003
-0.058587242 0.060836192 0.00052380003
-0.058587242 0.062320005 0.00052380003
-0.058587242 0.063803814 0.00052380003
-0.058587242 0.06528762 0.00052380003
-0.058587242 0.066771425 0.00052380003
-0.058587242 0.068255246 0.00052380003
0.068999946 0.071026668 0.000569519
0.068999946 0.072476193 0.000569519
0.068999946 0.073925719 0.000569519
-0.058587242 0.074190475 0.00052380003
0.068999946 0.075375244 0.000569519
-0.058587242 0.075674295 0.00052380003
-0.068999946 0.076824762 0.00088000286
0.068999946 0.076824762 0.000569519
-0.058587242 0.077158101 0.00052380003
-0.068999946 0.078274287 0.00088000286
0.069999933 0.078171432 0.00064761599
-0.069999933 0.07961905 0.00080000598
0.069999933 0.07961905 0.00064761599
0.071999967 0.080853336 0.0008038063
-0.069999933 0.081066668 0.00080000598
-0.071999967 0.082297146 0.00064000103
0.071999967 0.082297146 0.0008038063
-0.071999967 0.08374095 0.00064000103
0.059329145 0.087544769 0.00076121651
0.059329145 0.089028575 0.00076121651
-0.066999972 -0.011626666 0.0010400041
-0.062869444 -0.011809524 0.001106821
-0.061779328 -0.01184 0.0010049827
-0.066999972 -0.010173334 0.0010400041
-0.062869444 -0.010333333 0.001106821
-0.061779328 -0.01036 0.0010049827
0.062655158 -0.010333333 0.0014779698
0.067730397 -0.010293334 0.0013125539
-0.066999972 -0.0087200003 0.0010400041
-0.062869444 -0.0088571431 0.001106821
0.062655158 -0.0088571431 0.0014779698
-0.066999972 -0.0072666667 0.0010400041
0.062655158 -0.0073809526 0.0014779698
-0.066999972 -0.0058133332 0.0010400041
-0.061779328 -0.0059199999 0.0010049827
-0.060359325 -0.0059199999 0.0014545321
0.062655158 -0.0059047621 0.0014779698
-0.066999972 -0.0043600001 0.0010400041
-0.061779328 -0.0044400003 0.0010049827
-0.060359325 -0.0044400003 0.0014545321
0.062655158 -0.0044285716 0.0014779698
-0.066999972 -0.0029066666 0.0010400041
0.062655158 -0.002952381 0.0014779698
-0.066999972 -0.0014533333 0.0010400041
-0.060359325 -0.00148 0.0014545321
-0.066999972 0 0.0010400041
-0.066999972 0.0014533333 0.0010400041
-0.060359325 0.00148 0.0014545321
-0.066999972 0.0029066666 0.0010400041
-0.060359325 0.00296 0.0014545321
-0.066999972 0.0043600001 0.0010400041
-0.060359325 0.0044400003 0.0014545321
0.064345635 0.0044285716 0.0014500152
-0.066999972 0.0058133332 0.0010400041
-0.060359325 0.0059199999 0.0014545321
-0.066999972 0.0072666667 0.0010400041
-0.060359325 0.0074 0.0014545321
0.092999935 0.0070190481 0.0010399935
0.092999935 0.0084228581 0.0010399935
-0.066999972 0.0087200003 0.0010400041
-0.060359325 0.0088800006 0.0014545321
-0.066999972 0.010173334 0.0010400041
-0.066999972 0.011626666 0.0010400041
-0.066999972 0.01308 0.0010400041
0.062655158 0.013285715 0.0014779698
0.062655158 0.014761905 0.0014779698
0.062655158 0.016238095 0.0014779698
-0.066999972 0.017440001 0.0010400041
-0.060359325 0.017760001 0.0014545321
0.062655158 0.017714286 0.0014779698
0.10669269 0.018249525 0.00120271
-0.066999972 0.018893335 0.0010400041
-0.060359325 0.019239999 0.0014545321
0.062655158 0.019190477 0.0014779698
0.10669269 0.019653335 0.00120271
-0.060359325 0.020719999 0.0014545321
0.062655158 0.020666666 0.0014779698
0.10669269 0.021057144 0.00120271
0.062655158 0.022142859 0.0014779698
-0.061779328 0.02368 0.0010049827
-0.060359325 0.02368 0.0014545321
0.062655158 0.023619048 0.0014779698
-0.066999972 0.024706667 0.0010400041
-0.061779328 0.025160002 0.0010049827
-0.060359325 0.025160002 0.0014545321
0.062655158 0.025095237 0.0014779698
-0.066999972 0.02616 0.0010400041
-0.061779328 0.02664 0.0010049827
-0.060359325 0.02664 0.0014545321
0.062655158 0.02657143 0.0014779698
-0.060359325 0.02812 0.0014545321
0.062655158 0.028047619 0.0014779698
-0.061779328 0.0296 0.0010049827
-0.060359325 0.0296 0.0014545321
0.062655158 0.02952381 0.0014779698
-0.066999972 0.030520001 0.0010400041
-0.061779328 0.031079998 0.0010049827
-0.060359325 0.031079998 0.0014545321
0.062655158 0.031000003 0.0014779698
-0.066999972 0.031973332 0.0010400041
0.062655158 0.03247619 0.0014779698
-0.061779328 0.032559998 0.0010049827
-0.060359325 0.032559998 0.0014545321
-0.066999972 0.033426665 0.0010400041
0.062655158 0.033952381 0.0014779698
-0.061779328 0.03404 0.0010049827
-0.060359325 0.03404 0.0014545321
-0.066999972 0.034880001 0.0010400041
0.062655158 0.035428572 0.0014779698
-0.061779328 0.035520002 0.0010049827
-0.060359325 0.035520002 0.0014545321
-0.066999972 0.036333334 0.0010400041
0.062655158 0.03690476 0.0014779698
-0.061779328 0.037 0.0010049827
-0.060359325 0.037 0.0014545321
-0.066999972 0.03778667 0.0010400041
-0.061779328 0.038479999 0.0010049827
-0.060359325 0.038479999 0.0014545321
