# .PCD v0.7 - Point Cloud Data file format
VERSION 0.7
FIELDS x y z
SIZE 4 4 4
TYPE F F F
COUNT 1 1 1
WIDTH 1275
HEIGHT 1
VIEWPOINT 0 0 0 1 0 0 0
POINTS 1275
DATA ascii
0.095999956 0.11485714 -0.035222858
-0.088314891 0.11514287 -0.035033964
0.095999956 0.11638857 -0.035222858
0.095999956 0.11792 -0.035222858
-0.088314891 0.11821334 -0.035033964
0.095999956 0.11945143 -0.035222858
-0.088314891 0.11974858 -0.035033964
-0.013501337 -0.05806667 -0.034614846
-0.022257693 -0.056445718 -0.034551624
-0.022257693 -0.05473524 -0.034551624
-0.022257693 -0.053024765 -0.034551624
-0.013501337 -0.053089526 -0.034614846
-0.022257693 -0.051314291 -0.034551624
-0.020425092 -0.051076196 -0.034622513
-0.013501337 -0.051430479 -0.034614846
-0.013501337 -0.049771432 -0.034614846
-0.020425092 -0.049428575 -0.034622513
0.0032952384 -0.049428575 -0.034999907
0.0049428577 -0.049428575 -0.034999907
0.0065904767 -0.049428575 -0.034999907
-0.020425092 -0.047780957 -0.034622513
0 -0.047780957 -0.034999907
0.0016476192 -0.047780957 -0.034999907
0.0032952384 -0.047780957 -0.034999907
0.0049428577 -0.047780957 -0.034999907
0.0065904767 -0.047780957 -0.034999907
0 -0.046133336 -0.034999907
0.0016476192 -0.046133336 -0.034999907
0.0032952384 -0.046133336 -0.034999907
0.0049428577 -0.046133336 -0.034999907
0.0065904767 -0.046133336 -0.034999907
-0.013501337 -0.044794288 -0.034614846
-0.024797391 -0.044373337 -0.034950446
0.0049428577 -0.044485718 -0.034999907
0.0065904767 -0.044485718 -0.034999907
-0.013501337 -0.043135241 -0.034614846
-0.024797391 -0.04266667 -0.034950446
0.0049428577 0.037895244 -0.034999907
0.0065904767 0.037895244 -0.034999907
0.0082380958 0.037895244 -0.034999907
0.0032952384 0.039542861 -0.034999907
0.0049428577 0.039542861 -0.034999907
0.0065904767 0.039542861 -0.034999907
0.0082380958 0.039542861 -0.034999907
-0.013501337 0.041476194 -0.034614846
0.0032952384 0.041190479 -0.034999907
0.0032952384 0.042838097 -0.034999907
0.0032952384 0.044485718 -0.034999907
-0.013501337 0.044794288 -0.034614846
0.0016476192 0.046133336 -0.034999907
0.0032952384 0.046133336 -0.034999907
-0.0032952384 0.047780957 -0.034999907
-0.0016476192 0.047780957 -0.034999907
0 0.047780957 -0.034999907
0.0016476192 0.047780957 -0.034999907
0.0032952384 0.047780957 -0.034999907
0.0065904767 0.047780957 -0.034999907
-0.020425092 0.049428575 -0.034622513
-0.0032952384 0.049428575 -0.034999907
-0.0016476192 0.049428575 -0.034999907
0 0.049428575 -0.034999907
0.0016476192 0.049428575 -0.034999907
0.0032952384 0.049428575 -0.034999907
0.0049428577 0.049428575 -0.034999907
0.0065904767 0.049428575 -0.034999907
0.0082380958 0.049428575 -0.034999907
-0.023878425 0.050899051 -0.034641206
-0.020425092 0.051076196 -0.034622513
-0.0032952384 0.051076196 -0.034999907
-0.0016476192 0.051076196 -0.034999907
0 0.051076196 -0.034999907
0.0016476192 0.051076196 -0.034999907
0.0032952384 0.051076196 -0.034999907
0.0049428577 0.051076196 -0.034999907
0.0065904767 0.051076196 -0.034999907
-0.0065904767 0.052723814 -0.034999907
-0.0049428577 0.052723814 -0.034999907
-0.0032952384 0.052723814 -0.034999907
-0.0016476192 0.052723814 -0.034999907
0 0.052723814 -0.034999907
0.0016476192 0.052723814 -0.034999907
0.0032952384 0.052723814 -0.034999907
0.0049428577 0.052723814 -0.034999907
0.0065904767 0.052723814 -0.034999907
0.0082380958 0.052723814 -0.034999907
0.0098857153 0.052723814 -0.034999907
-0.020425092 0.054371431 -0.034622513
-0.0082380958 0.054371431 -0.034999907
-0.0065904767 0.054371431 -0.034999907
-0.0049428577 0.054371431 -0.034999907
-0.0032952384 0.054371431 -0.034999907
-0.0016476192 0.054371431 -0.034999907
0 0.054371431 -0.034999907
0.0016476192 0.054371431 -0.034999907
0.0032952384 0.054371431 -0.034999907
0.0049428577 0.054371431 -0.034999907
0.0065904767 0.054371431 -0.034999907
0.0082380958 0.054371431 -0.034999907
0.0098857153 0.054371431 -0.034999907
-0.023878425 0.055824768 -0.034641206
-0.016156102 0.055824768 -0.034550805
-0.020425092 0.056019049 -0.034622513
-0.0082380958 0.056019049 -0.034999907
-0.0065904767 0.056019049 -0.034999907
-0.0049428577 0.056019049 -0.034999907
-0.0032952384 0.056019049 -0.034999907
-0.0016476192 0.056019049 -0.034999907
0 0.056019049 -0.034999907
0.0016476192 0.056019049 -0.034999907
0.0049428577 0.056019049 -0.034999907
0.0082380958 0.056019049 -0.034999907
0.0098857153 0.056019049 -0.034999907
-0.023878425 0.057466671 -0.034641206
-0.016156102 0.057466671 -0.034550805
-0.020425092 0.057666671 -0.034622513
0.0016476192 0.057666671 -0.034999907
-0.020425092 0.059314292 -0.034622513
-0.016156102 0.059108574 -0.034550805
-0.0082380958 0.059314292 -0.034999907
0.0016476192 0.059314292 -0.034999907
-0.024999917 0.060000002 -0.035000004
-0.020425092 0.060961906 -0.034622513
-0.024999917 0.061666675 -0.035000004
-0.025877794 0.062057145 -0.034821544
-0.034163568 0.062605716 -0.034735534
-0.020425092 0.062609531 -0.034622513
-0.02699995 0.063188568 -0.03492
-0.023830634 0.063737147 -0.034738727
-0.019999981 0.063885719 -0.034640983
-0.02699995 0.064851433 -0.03492
-0.023878425 0.065676197 -0.034641206
-0.019999981 0.065523811 -0.034640983
-0.02699995 0.066514291 -0.03492
-0.025877794 0.067228578 -0.034821544
-0.019999981 0.06716191 -0.034640983
-0.02699995 0.068177141 -0.03492
-0.023878425 0.068960004 -0.034641206
-0.019999981 0.068799995 -0.034640983
-0.02699995 0.069839999 -0.03492
-0.019999981 0.070438094 -0.034640983
-0.023878425 0.07060191 -0.034641206
-0.02699995 0.071502857 -0.03492
-0.025877794 0.072400004 -0.034821544
-0.023878425 0.07224381 -0.034641206
-0.019999981 0.072076187 -0.034640983
-0.024898654 0.073360004 -0.034975223
-0.023878425 0.073885716 -0.034641206
-0.019999981 0.073714286 -0.034640983
-0.025877794 0.074123807 -0.034821544
-0.030233938 0.074942857 -0.034776133
-0.024999917 0.075000003 -0.035000004
-0.019999981 0.075352386 -0.034640983
-0.025877794 0.075847618 -0.034821544
-0.023878425 0.075527616 -0.034641206
-0.0098857153 0.075790487 -0.034999907
-0.02699995 0.07649143 -0.03492
-0.034163568 0.076518096 -0.034735534
-0.030233938 0.076685719 -0.034776133
-0.024797391 0.076799996 -0.034950446
-0.019999981 0.076990478 -0.034640983
-0.028455589 0.077455238 -0.034903951
-0.023878425 0.07716953 -0.034641206
-0.0098857153 0.077438101 -0.034999907
-0.02699995 0.078154288 -0.03492
-0.024797391 0.078506663 -0.034950446
-0.023878425 0.078811437 -0.034641206
-0.019999981 0.07862857 -0.034640983
-0.0082380958 0.079085723 -0.034999907
-0.024999917 0.080000006 -0.035000004
-0.023878425 0.080453336 -0.034641206
-0.019999981 0.080266662 -0.034640983
-0.0082380958 0.080733337 -0.034999907
-0.034163568 0.081735246 -0.034735534
-0.024999917 0.081666671 -0.035000004
-0.019999981 0.081904761 -0.034640983
-0.023878425 0.082095243 -0.034641206
-0.034163568 0.083474286 -0.034735534
-0.024999917 0.083333343 -0.035000004
-0.023878425 0.083737142 -0.034641206
-0.019999981 0.083542861 -0.034640983
-0.02699995 0.08480572 -0.03492
-0.034163568 0.085213341 -0.034735534
-0.023878425 0.085379049 -0.034641206
-0.019999981 0.085180953 -0.034640983
-0.02699995 0.08646857 -0.03492
-0.034163568 0.086952381 -0.034735534
-0.019999981 0.086819053 -0.034640983
-0.025877794 0.087914288 -0.034821544
-0.02699995 0.088131428 -0.03492
-0.019999981 0.088457145 -0.034640983
-0.02699995 0.089794286 -0.03492
-0.025877794 0.089638099 -0.034821544
-0.019999981 0.090095237 -0.034640983
-0.02699995 0.091457151 -0.03492
-0.028298825 0.091508567 -0.034985103
-0.019999981 0.091733329 -0.034640983
-0.034163568 0.092169531 -0.034735534
-0.02941208 0.093394287 -0.034943063
-0.028298825 0.093302861 -0.034985103
-0.02699995 0.093120001 -0.03492
-0.025877794 0.093085721 -0.034821544
-0.019999981 0.093371429 -0.034640983
-0.034163568 0.093908571 -0.034735534
-0.030233938 0.094114281 -0.034776133
-0.02699995 0.094782859 -0.03492
-0.023830634 0.094788581 -0.034738727
-0.02941208 0.095123813 -0.034943063
-0.028298825 0.095097147 -0.034985103
-0.023878425 0.095230483 -0.034641206
-0.030233938 0.095857143 -0.034776133
-0.02699995 0.096445717 -0.03492
-0.023830634 0.096422859 -0.034738727
-0.02941208 0.096853338 -0.034943063
-0.019999981 0.09664762 -0.034640983
-0.034163568 0.097386673 -0.034735534
-0.030233938 0.097600006 -0.034776133
-0.02699995 0.098108567 -0.03492
-0.023830634 0.098057151 -0.034738727
-0.02941208 0.098582864 -0.034943063
-0.020484136 0.098895244 -0.034920439
-0.034163568 0.099125721 -0.034735534
-0.030233938 0.09934286 -0.034776133
-0.024463251 0.099120006 -0.034908414
-0.02699995 0.099771433 -0.03492
-0.023830634 0.099691428 -0.034738727
-0.02941208 0.10031238 -0.034943063
-0.040033296 0.10053334 -0.034660298
-0.024463251 0.1008 -0.034908414
-0.020484136 0.10057143 -0.034920439
-0.030233938 0.10108571 -0.034776133
-0.02699995 0.10143429 -0.03492
-0.02941208 0.10204191 -0.034943063
-0.024463251 0.10248 -0.034908414
-0.034163568 0.10260382 -0.034735534
-0.030233938 0.10282857 -0.034776133
-0.02699995 0.10309715 -0.03492
-0.028298825 0.10406857 -0.034985103
-0.030233938 0.10457143 -0.034776133
-0.026291091 0.10480001 -0.034809168
-0.028298825 0.10586286 -0.034985103
-0.11982456 0.10645715 -0.034742203
-0.026291091 0.10654667 -0.034809168
-0.11982456 0.10800001 -0.034742203
-0.026291091 0.10829334 -0.034809168
-0.11982456 0.10954287 -0.034742203
-0.11982456 0.11108572 -0.034742203
-0.11982456 0.11262858 -0.034742203
-0.11982456 0.11417144 -0.034742203
-0.11982456 0.11571429 -0.034742203
-0.10199994 0.11552 -0.034959998
-0.090795539 0.11638857 -0.034737416
-0.10199994 0.11704 -0.034959998
-0.090795539 0.11792 -0.034737416
-0.10199994 0.11856001 -0.034959998
-0.010365553 -0.051076196 -0.034429856
-0.01706144 -0.040830478 -0.034448847
-0.01706144 -0.037280001 -0.034448847
-0.0056734728 0.035119999 -0.034173168
-0.0056734728 0.036792379 -0.034173168
-0.0091505609 0.038333338 -0.034150593
-0.0056734728 0.038464762 -0.034173168
-0.016087703 0.046346668 -0.034135193
-0.03238621 0.059266668 -0.034094725
-0.023238147 0.060200002 -0.034249488
-0.03238621 0.060960002 -0.034094725
-0.020515723 0.060552385 -0.034465894
-0.023238147 0.061920006 -0.034249488
-0.03238621 0.062653333 -0.034094725
-0.023238147 0.063640006 -0.034249488
-0.023238147 0.065360002 -0.034249488
-0.023238147 0.067080006 -0.034249488
-0.023238147 0.068800002 -0.034249488
-0.023238147 0.070520006 -0.034249488
-0.023238147 0.072240002 -0.034249488
-0.023238147 0.075680003 -0.034249488
-0.026997369 0.077455238 -0.034062047
-0.023238147 0.077400006 -0.034249488
-0.026997369 0.079139054 -0.034062047
-0.023238147 0.079120003 -0.034249488
-0.023238147 0.080839999 -0.034249488
-0.023238147 0.084279999 -0.034249488
-0.029060125 0.086415246 -0.03402885
-0.023238147 0.086000003 -0.034249488
-0.023238147 0.087719999 -0.034249488
-0.023008328 0.094080001 -0.034068413
-0.023008328 0.095760003 -0.034068413
-0.023008328 0.097440004 -0.034068413
-0.03238621 0.098213337 -0.034094725
-0.01903251 0.098895244 -0.034082346
-0.034911621 0.099681906 -0.0344688
-0.03238621 0.099906676 -0.034094725
-0.086600006 0.1000381 -0.034004286
-0.03238621 0.10160001 -0.034094725
-0.023008328 0.10248 -0.034068413
-0.03238621 0.10329334 -0.034094725
-0.031193629 0.104 -0.03402885
0.093272336 0.1038781 -0.034447439
-0.023008328 0.10416 -0.034068413
-0.031193629 0.10573334 -0.03402885
0.093272336 0.10693334 -0.034447439
0.093272336 0.10846096 -0.034447439
0.093272336 0.10998858 -0.034447439
0.093272336 0.1115162 -0.034447439
0.093272336 0.11304381 -0.034447439
0.093272336 0.11609905 -0.034447439
0.093272336 0.11762667 -0.034447439
0.09574537 0.11885715 -0.03416409
0.093272336 0.11915429 -0.034447439
-0.011742643 -0.056537144 -0.033661045
-0.019999921 -0.055314288 -0.033523809
-0.011742643 -0.054874286 -0.033661045
-0.019999921 -0.053638097 -0.033523809
-0.019999921 -0.05196191 -0.033523809
-0.011792433 -0.051076196 -0.033606045
-0.019999921 -0.050285716 -0.033523809
-0.029857036 -0.049217142 -0.033714015
-0.026481802 -0.049382862 -0.033867981
-0.011792433 -0.049428575 -0.033606045
-0.017999947 -0.048720002 -0.033600003
-0.029857036 -0.047520004 -0.033714015
-0.011792433 -0.047780957 -0.033606045
-0.017999947 -0.047040001 -0.033600003
-0.011742643 -0.046560001 -0.033661045
-0.018670207 -0.046240002 -0.033662118
-0.011792433 -0.046133336 -0.033606045
-0.026481802 -0.045977142 -0.033867981
-0.015999913 -0.045462862 -0.033676192
-0.015999913 -0.043779049 -0.033676192
-0.012999952 -0.042238098 -0.033790477
-0.011742643 -0.041571431 -0.033661045
-0.010999918 -0.040640004 -0.033866666
-0.010999918 -0.038946666 -0.033866666
-0.0089999437 -0.037337143 -0.033942856
-0.0089999437 -0.035640001 -0.033942856
-0.0089999437 -0.033942856 -0.033942856
-0.0089999437 -0.032245714 -0.033942856
-0.011742643 0 -0.033661045
-0.019999921 0.031847622 -0.033523809
-0.019999921 0.033523809 -0.033523809
-0.019999921 0.035200004 -0.033523809
-0.019999921 0.03687619 -0.033523809
-0.011792433 0.037895244 -0.033606045
-0.017999947 0.038640004 -0.033600003
-0.011742643 0.039908569 -0.033661045
-0.017999947 0.040320002 -0.033600003
-0.017999947 0.042000003 -0.033600003
-0.019999921 0.045257147 -0.033523809
-0.019999921 0.046933334 -0.033523809
-0.029857036 0.047520004 -0.033714015
-0.018670207 0.047891431 -0.033662118
-0.019999921 0.048609529 -0.033523809
-0.029857036 0.049217142 -0.033714015
-0.011792433 0.049428575 -0.033606045
-0.029857036 0.050914288 -0.033714015
-0.029857036 0.052611429 -0.033714015
-0.018670207 0.052845716 -0.033662118
-0.019999921 0.053638097 -0.033523809
-0.029857036 0.054308575 -0.033714015
-0.019999921 0.055314288 -0.033523809
-0.029857036 0.056005716 -0.033714015
-0.019999921 0.056990478 -0.033523809
-0.029857036 0.057702858 -0.033714015
-0.029857036 0.059400003 -0.033714015
-0.023119181 0.060681906 -0.03395652
-0.017578032 0.060750477 -0.033729855
-0.017578032 0.06239238 -0.033729855
-0.032657508 0.062605716 -0.033866011
-0.029857036 0.06279429 -0.033714015
-0.025245966 0.063737147 -0.033921584
-0.021418612 0.063885719 -0.033821937
-0.026583944 0.064457148 -0.033955421
-0.025245966 0.065371424 -0.033921584
-0.021418612 0.065523811 -0.033821937
-0.029857036 0.066188574 -0.033714015
-0.026583944 0.06624762 -0.033955421
-0.025245966 0.067005716 -0.033921584
-0.021418612 0.06716191 -0.033821937
-0.029857036 0.067885712 -0.033714015
-0.028724585 0.067971431 -0.033904705
-0.026583944 0.068038099 -0.033955421
-0.025245966 0.068640009 -0.033921584
-0.021418612 0.068799995 -0.033821937
-0.028724585 0.069714293 -0.033904705
-0.026583944 0.069828577 -0.033955421
-0.023119181 0.069605723 -0.03395652
-0.025245966 0.070274286 -0.033921584
-0.021418612 0.070438094 -0.033821937
-0.028724585 0.07145714 -0.033904705
-0.026583944 0.071619049 -0.033955421
-0.026481802 0.071520008 -0.033867981
-0.021418612 0.072076187 -0.033821937
-0.028724585 0.073200002 -0.033904705
-0.026583944 0.073409528 -0.033955421
-0.021418612 0.073714286 -0.033821937
-0.026481802 0.074925721 -0.033867981
-0.026583944 0.075200006 -0.033955421
-0.021418612 0.075352386 -0.033821937
-0.032657508 0.076518096 -0.033866011
-0.026583944 0.076990478 -0.033955421
-0.021418612 0.076990478 -0.033821937
-0.026583944 0.078780949 -0.033955421
-0.021418612 0.07862857 -0.033821937
-0.032657508 0.079996191 -0.033866011
-0.026481802 0.080034286 -0.033867981
-0.021418612 0.080266662 -0.033821937
-0.026583944 0.080571435 -0.033955421
-0.029857036 0.08146286 -0.033714015
-0.032657508 0.081735246 -0.033866011
-0.026583944 0.082361907 -0.033955421
-0.032657508 0.083474286 -0.033866011
-0.029857036 0.083159998 -0.033714015
-0.026583944 0.084152386 -0.033955421
-0.029857036 0.084857151 -0.033714015
-0.032657508 0.085213341 -0.033866011
-0.026583944 0.085942864 -0.033955421
-0.032657508 0.086952381 -0.033866011
-0.029857036 0.086554289 -0.033714015
-0.026583944 0.087733336 -0.033955421
-0.029857036 0.088251427 -0.033714015
-0.029857036 0.08994858 -0.033714015
-0.026583944 0.089523815 -0.033955421
-0.032657508 0.090430476 -0.033866011
-0.021418612 0.090095237 -0.033821937
-0.029857036 0.091645718 -0.033714015
-0.021418612 0.091733329 -0.033821937
-0.032657508 0.092169531 -0.033866011
-0.021418612 0.093371429 -0.033821937
-0.038532186 0.093600005 -0.033793632
-0.032657508 0.093908571 -0.033866011
-0.026481802 0.093657143 -0.033867981
-0.028724585 0.094114281 -0.033904705
-0.025245966 0.094788581 -0.033921584
-0.026481802 0.095360003 -0.033867981
-0.028724585 0.095857143 -0.033904705
-0.029857036 0.096737146 -0.033714015
-0.026583944 0.096685715 -0.033955421
-0.028724585 0.097600006 -0.033904705
-0.026583944 0.098476201 -0.033955421
-0.032657508 0.099125721 -0.033866011
-0.028724585 0.09934286 -0.033904705
-0.024778433 0.099560007 -0.033935837
-0.026583944 0.10026667 -0.033955421
-0.09799993 0.10082286 -0.033607621
-0.038532186 0.10053334 -0.033793632
-0.032657508 0.10086477 -0.033866011
0.099999964 0.10057142 -0.033523809
-0.089082509 0.10132572 -0.033704408
-0.028724585 0.10108571 -0.033904705
-0.09799993 0.10235048 -0.033607621
-0.026583944 0.10205714 -0.033955421
0.09799993 0.10235048 -0.033607621
-0.089082509 0.10286096 -0.033704408
-0.028724585 0.10282857 -0.033904705
-0.024778433 0.10305334 -0.033935837
-0.09799993 0.1038781 -0.033607621
-0.089082509 0.10439619 -0.033704408
0.095999956 0.10413714 -0.033691429
-0.024778433 0.10480001 -0.033935837
-0.09799993 0.10540573 -0.033607621
-0.089082509 0.10593143 -0.033704408
0.095999956 0.10566857 -0.033691429
-0.09799993 0.10693334 -0.033607621
-0.089082509 0.10746667 -0.033704408
0.095999956 0.1072 -0.033691429
-0.099999964 0.10819048 -0.033523809
0.095999956 0.10873143 -0.033691429
-0.089082509 0.10900191 -0.033704408
-0.099999964 0.10971429 -0.033523809
0.095999956 0.11026286 -0.033691429
-0.089082509 0.11053715 -0.033704408
-0.099999964 0.1112381 -0.033523809
0.095999956 0.11179429 -0.033691429
-0.089082509 0.11207239 -0.033704408
-0.099999964 0.11276191 -0.033523809
0.095999956 0.11332572 -0.033691429
-0.089082509 0.11360763 -0.033704408
-0.099999964 0.11428571 -0.033523809
0.095999956 0.11485714 -0.033691429
-0.089082509 0.11514287 -0.033704408
-0.099999964 0.11580952 -0.033523809
0.095999956 0.11638857 -0.033691429
-0.099999964 0.11733334 -0.033523809
0.095999956 0.11792 -0.033691429
-0.099999964 0.11885715 -0.033523809
0.095999956 0.11945143 -0.033691429
-0.089082509 0.11974858 -0.033704408
-0.021402454 -0.058156192 -0.033070307
-0.01433086 -0.05806667 -0.033178069
-0.021402454 -0.056445718 -0.033070307
-0.01433086 -0.056407623 -0.033178069
-0.021402454 -0.05473524 -0.033070307
-0.01433086 -0.054748576 -0.033178069
-0.021402454 -0.053024765 -0.033070307
-0.01433086 -0.053089526 -0.033178069
-0.021248903 -0.051076196 -0.03319563
-0.01433086 -0.051430479 -0.033178069
-0.01433086 -0.049771432 -0.033178069
-0.023944058 -0.049493335 -0.033472426
-0.021248903 -0.049428575 -0.03319563
-0.021248903 -0.047780957 -0.03319563
-0.01433086 -0.046453334 -0.033178069
-0.01433086 -0.044794288 -0.033178069
-0.023944058 -0.044373337 -0.033472426
-0.015352268 -0.044285718 -0.033409271
-0.01433086 -0.043135241 -0.033178069
-0.015352268 -0.035428576 -0.033409271
-0.015352268 -0.033657145 -0.033409271
-0.015352268 -0.031885717 -0.033409271
-0.020000041 -0.029790476 -0.033295237
-0.020000041 -0.028038096 -0.033295237
-0.022000074 -0.026342858 -0.033367623
-0.022000074 -0.024586668 -0.033367623
-0.022000074 -0.022830477 -0.033367623
-0.020000041 0.040304761 -0.033295237
-0.020000041 0.042057142 -0.033295237
-0.021999955 0.043481905 -0.03344762
-0.01433086 0.043135241 -0.033178069
-0.015352268 0.044285718 -0.033409271
-0.01433086 0.044794288 -0.033178069
-0.015352268 0.046057146 -0.033409271
-0.021248903 0.047780957 -0.03319563
-0.015352268 0.047828577 -0.033409271
-0.025000095 0.049333334 -0.033476193
-0.021248903 0.049428575 -0.03319563
-0.021999955 0.050171427 -0.03344762
-0.021999955 0.051843811 -0.03344762
-0.025000095 0.052857146 -0.033476193
-0.021248903 0.052723814 -0.03319563
-0.021248903 0.054371431 -0.03319563
-0.025000095 0.054619052 -0.033476193
-0.025000095 0.056380957 -0.033476193
-0.025015891 0.056885716 -0.033328682
-0.025000095 0.058142859 -0.033476193
-0.025015891 0.058609523 -0.033328682
-0.021999955 0.058533337 -0.03344762
-0.021248903 0.059314292 -0.03319563
-0.022000074 0.059710477 -0.033367623
-0.024999917 0.060000002 -0.033333335
-0.021248903 0.060961906 -0.03319563
-0.022000074 0.061466668 -0.033367623
-0.024999917 0.061666675 -0.033333335
-0.021248903 0.062609531 -0.03319563
-0.024999917 0.06333334 -0.033333335
-0.022000074 0.063222855 -0.033367623
-0.026661299 0.063737147 -0.033104442
-0.021248903 0.064257152 -0.03319563
-0.022000074 0.064979054 -0.033367623
-0.026661299 0.065371424 -0.033104442
-0.024999917 0.065000005 -0.033333335
-0.024699377 0.065676197 -0.033219278
-0.022837246 0.065523811 -0.033002887
-0.024999917 0.06666667 -0.033333335
-0.022000074 0.066735245 -0.033367623
-0.026661299 0.067005716 -0.033104442
-0.022837246 0.06716191 -0.033002887
-0.021248903 0.067552388 -0.03319563
-0.02699995 0.068177141 -0.033257145
-0.022000074 0.068491429 -0.033367623
-0.022837246 0.068799995 -0.033002887
-0.025539145 0.069036193 -0.033220142
-0.027215224 0.069714293 -0.033033278
-0.02699995 0.069839999 -0.033257145
-0.022837246 0.070438094 -0.033002887
-0.022000074 0.07024762 -0.033367623
-0.025539145 0.070720002 -0.033220142
-0.024999917 0.071666673 -0.033333335
-0.024699377 0.07224381 -0.033219278
-0.022837246 0.072076187 -0.033002887
-0.022000074 0.072003812 -0.033367623
-0.024999917 0.073333338 -0.033333335
-0.023944058 0.073386669 -0.033472426
-0.024699377 0.073885716 -0.033219278
-0.022837246 0.073714286 -0.033002887
-0.022000074 0.073760003 -0.033367623
-0.025015891 0.074123807 -0.033328682
-0.024999917 0.075000003 -0.033333335
-0.022837246 0.075352386 -0.033002887
-0.024699377 0.075527616 -0.033219278
-0.022000074 0.075516194 -0.033367623
-0.02699995 0.07649143 -0.033257145
-0.022837246 0.076990478 -0.033002887
-0.025539145 0.077455238 -0.033220142
-0.024699377 0.07716953 -0.033219278
-0.022000074 0.077272385 -0.033367623
-0.02699995 0.078154288 -0.033257145
-0.024699377 0.078811437 -0.033219278
-0.022837246 0.07862857 -0.033002887
-0.025539145 0.079139054 -0.033220142
-0.022000074 0.079028577 -0.033367623
-0.024849646 0.080226675 -0.033276305
-0.025539145 0.080822863 -0.033220142
-0.022000074 0.080784768 -0.033367623
-0.024999917 0.081666671 -0.033333335
-0.024699377 0.082095243 -0.033219278
-0.020000041 0.082361907 -0.033295237
-0.025539145 0.082506672 -0.033220142
-0.026661299 0.08334858 -0.033104442
-0.024999917 0.083333343 -0.033333335
-0.024699377 0.083737142 -0.033219278
-0.022837246 0.083542861 -0.033002887
-0.020000041 0.084114283 -0.033295237
-0.026830625 0.084894285 -0.033180796
-0.024699377 0.085379049 -0.033219278
-0.022837246 0.085180953 -0.033002887
-0.02699995 0.08646857 -0.033257145
-0.022000074 0.086053334 -0.033367623
-0.026661299 0.086617149 -0.033104442
-0.022837246 0.086819053 -0.033002887
-0.024699377 0.087020956 -0.033219278
-0.022000074 0.087809525 -0.033367623
-0.02699995 0.088131428 -0.033257145
-0.022837246 0.088457145 -0.033002887
-0.024699377 0.088662863 -0.033219278
-0.017580889 0.0888381 -0.033244252
-0.02699995 0.089794286 -0.033257145
-0.025015891 0.089638099 -0.033328682
-0.022000074 0.089565717 -0.033367623
-0.024699377 0.09030477 -0.033219278
-0.022837246 0.090095237 -0.033002887
-0.017580889 0.090514295 -0.033244252
-0.02699995 0.091457151 -0.033257145
-0.025015891 0.091361903 -0.033328682
-0.022000074 0.091321908 -0.033367623
-0.02919597 0.091508567 -0.033431202
-0.028547317 0.091664769 -0.03344525
-0.024699377 0.091946669 -0.033219278
-0.022837246 0.091733329 -0.033002887
-0.017580889 0.092190482 -0.033244252
-0.02919597 0.093302861 -0.033431202
-0.02699995 0.093120001 -0.033257145
-0.025007993 0.093233339 -0.033402435
-0.022837246 0.093371429 -0.033002887
-0.024699377 0.093588576 -0.033219278
-0.025539145 0.094293341 -0.033220142
-0.021553403 0.094080001 -0.033228412
-0.02699995 0.094782859 -0.033257145
-0.025015891 0.094809525 -0.033328682
-0.032671209 0.095400006 -0.033411957
-0.02919597 0.095097147 -0.033431202
-0.028547317 0.095123813 -0.03344525
-0.025000095 0.095142864 -0.033476193
-0.024699377 0.095230483 -0.033219278
-0.027215224 0.095857143 -0.033033278
-0.021553403 0.095760003 -0.033228412
-0.017580889 0.095542863 -0.033244252
0.10199994 0.095760003 -0.033440001
-0.02699995 0.096445717 -0.033257145
-0.023265772 0.096066669 -0.033062503
-0.02919597 0.096891426 -0.033431202
-0.028547317 0.096853338 -0.03344525
-0.025000095 0.09690477 -0.033476193
-0.024699377 0.096872382 -0.033219278
-0.021553403 0.097440004 -0.033228412
-0.017580889 0.097219057 -0.033244252
0.10199994 0.097280003 -0.033440001
-0.027215224 0.097600006 -0.033033278
-0.025539145 0.097660959 -0.033220142
-0.023265772 0.097813345 -0.033062503
-0.02699995 0.098108567 -0.033257145
-0.028547317 0.098582864 -0.03344525
-0.025000095 0.098666668 -0.033476193
-0.024699377 0.098514289 -0.033219278
0.10199994 0.098800004 -0.033440001
-0.027215224 0.09934286 -0.033033278
-0.02699995 0.099771433 -0.033257145
-0.028547317 0.10031238 -0.03344525
-0.025000095 0.10042857 -0.033476193
-0.024699377 0.1001562 -0.033219278
-0.02699995 0.10143429 -0.033257145
-0.02919597 0.10227428 -0.033431202
-0.028547317 0.10204191 -0.03344525
-0.025000095 0.10219049 -0.033476193
-0.021553403 0.10248 -0.033228412
0.09403614 0.10235048 -0.033124484
-0.027215224 0.10282857 -0.033033278
-0.02699995 0.10309715 -0.033257145
-0.022000074 0.10361524 -0.033367623
0.09403614 0.1038781 -0.033124484
-0.02919597 0.10406857 -0.033431202
-0.021553403 0.10416 -0.033228412
-0.020000041 0.10514285 -0.033295237
0.09403614 0.10540573 -0.033124484
-0.02919597 0.10586286 -0.033431202
0.091561258 0.10566857 -0.03341116
-0.020000041 0.10689525 -0.033295237
0.09403614 0.10693334 -0.033124484
0.09403614 0.10846096 -0.033124484
0.09403614 0.10998858 -0.033124484
0.09403614 0.1115162 -0.033124484
0.09403614 0.11304381 -0.033124484
0.091561258 0.11485714 -0.03341116
0.09403614 0.11457143 -0.033124484
0.09403614 0.11609905 -0.033124484
0.09403614 0.11762667 -0.033124484
-0.016915321 -0.054622855 -0.03270172
-0.016915321 -0.052967619 -0.03270172
-0.0093490705 -0.052845716 -0.032707348
-0.0049542859 -0.052845716 -0.032999933
-0.0033028573 -0.052845716 -0.032999933
-0.0016514286 -0.052845716 -0.032999933
0 -0.052845716 -0.032999933
0.0066057146 -0.052845716 -0.032999933
0.0082571432 -0.052845716 -0.032999933
0.0099085718 -0.052845716 -0.032999933
-0.013219314 -0.051076196 -0.032782238
-0.0049542859 -0.051194288 -0.032999933
-0.0033028573 -0.051194288 -0.032999933
-0.0016514286 -0.051194288 -0.032999933
0 -0.051194288 -0.032999933
0.0016514286 -0.051194288 -0.032999933
0.0033028573 -0.051194288 -0.032999933
0.0049542859 -0.051194288 -0.032999933
0.0066057146 -0.051194288 -0.032999933
0.0082571432 -0.051194288 -0.032999933
-0.0033028573 -0.049542859 -0.032999933
-0.0016514286 -0.049542859 -0.032999933
0 -0.049542859 -0.032999933
0.0016514286 -0.049542859 -0.032999933
-0.013219314 -0.049428575 -0.032782238
-0.013219314 -0.047780957 -0.032782238
-0.0016514286 -0.047891431 -0.032999933
-0.013219314 -0.046133336 -0.032782238
-0.0016514286 -0.046240002 -0.032999933
-0.016915321 -0.044691432 -0.03270172
0.0016514286 -0.044588573 -0.032999933
0.0033028573 -0.044588573 -0.032999933
-0.01794906 -0.042605713 -0.032911446
0.0033028573 -0.042937145 -0.032999933
0.0049542859 -0.042937145 -0.032999933
0.0066057146 -0.042937145 -0.032999933
-0.01794906 -0.040830478 -0.032911446
-0.0099838944 -0.040000003 -0.032707222
-0.01794906 -0.039055239 -0.032911446
-0.0099838944 -0.038333338 -0.032707222
-0.0099838944 -0.021666668 -0.032707222
-0.0099838944 -0.018333334 -0.032707222
-0.0099838944 -0.015000001 -0.032707222
-0.0099838944 -0.013333334 -0.032707222
-0.0099838944 0.0016666667 -0.032707222
-0.0099838944 0.0050000004 -0.032707222
-0.0099838944 0.0066666668 -0.032707222
-0.0099838944 0.0083333338 -0.032707222
-0.0099838944 0.010000001 -0.032707222
-0.0099838944 0.011666668 -0.032707222
-0.0099838944 0.03166667 -0.032707222
-0.0065096635 0.035119999 -0.032724842
0.0049542859 0.03633143 -0.032999933
0.0066057146 0.03633143 -0.032999933
-0.0065096635 0.036792379 -0.032724842
-0.013219314 0.037895244 -0.032782238
0.0033028573 0.037982859 -0.032999933
-0.0099838944 0.038333338 -0.032707222
0.0016514286 0.039634287 -0.032999933
0 0.041285716 -0.032999933
0.0016514286 0.041285716 -0.032999933
0 0.042937145 -0.032999933
0.0016514286 0.042937145 -0.032999933
0 0.044588573 -0.032999933
0.0016514286 0.044588573 -0.032999933
-0.016915321 0.046346668 -0.03270172
-0.0016514286 0.046240002 -0.032999933
0 0.046240002 -0.032999933
-0.013219314 0.049428575 -0.032782238
-0.0049542859 0.049542859 -0.032999933
-0.013219314 0.051076196 -0.032782238
-0.0066057146 0.051194288 -0.032999933
-0.0049542859 0.051194288 -0.032999933
-0.037031077 0.052000001 -0.032926966
-0.013219314 0.052723814 -0.032782238
-0.0082571432 0.052845716 -0.032999933
-0.013219314 0.054371431 -0.032782238
-0.037031077 0.055466667 -0.032926966
-0.013219314 0.056019049 -0.032782238
-0.018999964 0.057466671 -0.032908902
-0.037031077 0.058933333 -0.032926966
-0.0214062 0.058771431 -0.032923542
-0.01794906 0.058582857 -0.032911446
-0.018999964 0.059108574 -0.032908902
-0.037031077 0.060666665 -0.032926966
-0.031539544 0.060960002 -0.032628253
-0.018999964 0.060750477 -0.032908902
-0.022378147 0.061920006 -0.032759923
-0.037031077 0.062400002 -0.032926966
-0.018999964 0.06239238 -0.032908902
-0.022378147 0.063640006 -0.032759923
-0.031539544 0.064346671 -0.032628253
-0.031151447 0.064344764 -0.032996487
-0.022378147 0.065360002 -0.032759923
-0.031151447 0.066083811 -0.032996487
-0.022378147 0.067080006 -0.032759923
-0.022378147 0.068800002 -0.032759923
-0.022378147 0.070520006 -0.032759923
-0.022378147 0.072240002 -0.032759923
-0.022378147 0.073960006 -0.032759923
-0.022378147 0.075680003 -0.032759923
-0.022378147 0.077400006 -0.032759923
-0.037031077 0.078000002 -0.032926966
-0.022378147 0.079120003 -0.032759923
-0.0099085718 0.079268575 -0.032999933
-0.037031077 0.079733334 -0.032926966
-0.031151447 0.079996191 -0.032996487
-0.022378147 0.080839999 -0.032759923
-0.0099085718 0.080920003 -0.032999933
-0.037031077 0.081466667 -0.032926966
-0.022378147 0.082560003 -0.032759923
-0.0099085718 0.082571432 -0.032999933
-0.031151447 0.083474286 -0.032996487
-0.022378147 0.084279999 -0.032759923
-0.0099085718 0.084222861 -0.032999933
-0.031151447 0.085213341 -0.032996487
-0.0099085718 0.085874289 -0.032999933
-0.022378147 0.086000003 -0.032759923
-0.031151447 0.086952381 -0.032996487
-0.022378147 0.087719999 -0.032759923
-0.031151447 0.088691436 -0.032996487
-0.022378147 0.089440003 -0.032759923
-0.031151447 0.090430476 -0.032996487
-0.022378147 0.091159999 -0.032759923
-0.031151447 0.092169531 -0.032996487
-0.022378147 0.092880011 -0.032759923
-0.037031077 0.093600005 -0.032926966
-0.031539544 0.098213337 -0.032628253
-0.084885068 0.098742865 -0.032974575
-0.031539544 0.099906676 -0.032628253
-0.087369524 0.1000381 -0.032671429
-0.037031077 0.10053334 -0.032926966
-0.031539544 0.10160001 -0.032628253
-0.030326962 0.104 -0.032527741
-0.030326962 0.10573334 -0.032527741
0.096507274 0.11885715 -0.032844432
-0.019495921 -0.052845716 -0.032231934
-0.024080925 -0.052198097 -0.032378238
-0.029008467 -0.047520004 -0.03224425
-0.025630372 -0.047680002 -0.032393262
-0.029645391 -0.046954285 -0.032126963
-0.019495921 -0.046240002 -0.032231934
-0.025630372 -0.045977142 -0.032393262
-0.025630372 -0.042571433 -0.032393262
-0.012999952 -0.042238098 -0.032100953
-0.012574072 -0.041571431 -0.032220967
-0.025630372 -0.040868573 -0.032393262
-0.010999918 -0.040640004 -0.032173336
-0.010999918 -0.038946666 -0.032173336
-0.0089999437 -0.037337143 -0.032245714
-0.0089999437 -0.035640001 -0.032245714
-0.0089999437 -0.033942856 -0.032245714
-0.0089999437 -0.032245714 -0.032245714
-0.0089999437 -0.030548571 -0.032245714
-0.012574072 0 -0.032220967
-0.012574072 0.039908569 -0.032220967
-0.012574072 0.041571431 -0.032220967
-0.029008467 0.047520004 -0.03224425
-0.029008467 0.050914288 -0.03224425
-0.035529964 0.052000001 -0.032060299
-0.029645391 0.052171431 -0.032126963
-0.029008467 0.052611429 -0.03224425
-0.029645391 0.053910479 -0.032126963
-0.029008467 0.054308575 -0.03224425
-0.035529964 0.055466667 -0.032060299
-0.029008467 0.056005716 -0.03224425
-0.029645391 0.057388574 -0.032126963
-0.020421896 0.057466671 -0.032087948
-0.029008467 0.057702858 -0.03224425
-0.035529964 0.058933333 -0.032060299
-0.030179048 0.058582857 -0.032000065
-0.029645391 0.059127621 -0.032126963
-0.029008467 0.059400003 -0.03224425
-0.020421896 0.059108574 -0.032087948
-0.030179048 0.060358096 -0.032000065
-0.035529964 0.060666665 -0.032060299
-0.029645391 0.060866669 -0.032126963
-0.024011564 0.060681906 -0.032410871
-0.020421896 0.060750477 -0.032087948
-0.030179048 0.062133338 -0.032000065
-0.024011564 0.06246667 -0.032410871
-0.020421896 0.06239238 -0.032087948
-0.019744162 0.063499048 -0.032197796
-0.030179048 0.063908577 -0.032000065
-0.028403811 0.063908577 -0.032000065
-0.026628572 0.063908577 -0.032000065
-0.029645391 0.064344764 -0.032126963
-0.026628572 0.065683812 -0.032000065
-0.029645391 0.066083811 -0.032126963
-0.029008467 0.066188574 -0.03224425
-0.029008467 0.067885712 -0.03224425
-0.027479183 0.068038099 -0.032404825
-0.020098481 0.068880007 -0.032388411
-0.024080925 0.069036193 -0.032378238
-0.029008467 0.069582857 -0.03224425
-0.025630372 0.069817148 -0.032393262
-0.024080925 0.070720002 -0.032378238
-0.025630372 0.071520008 -0.032393262
-0.024255877 0.072076187 -0.032183841
-0.017752383 0.072784767 -0.032000065
-0.024255877 0.073714286 -0.032183841
-0.029645391 0.074779049 -0.032126963
-0.025630372 0.074925721 -0.032393262
-0.01952762 0.074560001 -0.032000065
-0.017752383 0.074560001 -0.032000065
-0.024255877 0.075352386 -0.032183841
-0.03007929 0.076028571 -0.032377336
-0.01952762 0.076335236 -0.032000065
-0.017752383 0.076335236 -0.032000065
-0.029645391 0.076518096 -0.032126963
-0.027479183 0.076990478 -0.032404825
-0.025630372 0.076628581 -0.032393262
-0.024255877 0.076990478 -0.032183841
-0.024080925 0.077455238 -0.032378238
-0.035529964 0.078000002 -0.032060299
-0.025630372 0.078331426 -0.032393262
-0.021302857 0.078110479 -0.032000065
-0.01952762 0.078110479 -0.032000065
-0.017752383 0.078110479 -0.032000065
-0.024255877 0.07862857 -0.032183841
-0.019744162 0.078944758 -0.032197796
-0.024080925 0.079139054 -0.032378238
-0.035529964 0.079733334 -0.032060299
-0.021302857 0.079885721 -0.032000065
-0.01952762 0.079885721 -0.032000065
-0.017752383 0.079885721 -0.032000065
-0.015977144 0.079885721 -0.032000065
-0.024255877 0.080266662 -0.032183841
-0.024080925 0.080822863 -0.032378238
-0.020098481 0.080640003 -0.032388411
-0.019744162 0.080660954 -0.032197796
-0.029008467 0.08146286 -0.03224425
-0.024255877 0.081904761 -0.032183841
-0.023078095 0.081660956 -0.032000065
-0.017752383 0.081660956 -0.032000065
-0.015977144 0.081660956 -0.032000065
-0.027479183 0.082361907 -0.032404825
-0.020260189 0.08220762 -0.032238178
-0.019744162 0.082377143 -0.032197796
-0.024080925 0.082506672 -0.032378238
-0.029008467 0.083159998 -0.03224425
-0.024853334 0.083436191 -0.032000065
-0.023078095 0.083436191 -0.032000065
-0.017752383 0.083436191 -0.032000065
-0.024255877 0.083542861 -0.032183841
-0.020421896 0.083737142 -0.032087948
-0.027479183 0.084152386 -0.032404825
-0.024080925 0.08419048 -0.032378238
-0.020098481 0.084000006 -0.032388411
-0.028076632 0.084982857 -0.0322873
-0.026628572 0.085211426 -0.032000065
-0.024853334 0.085211426 -0.032000065
-0.024255877 0.085180953 -0.032183841
-0.023078095 0.085211426 -0.032000065
-0.020421896 0.085379049 -0.032087948
-0.027479183 0.085942864 -0.032404825
-0.024080925 0.085874289 -0.032378238
-0.020098481 0.08568 -0.032388411
-0.019744162 0.085809529 -0.032197796
-0.029008467 0.086554289 -0.03224425
-0.026628572 0.086986668 -0.032000065
-0.024853334 0.086986668 -0.032000065
-0.024255877 0.086819053 -0.032183841
-0.023078095 0.086986668 -0.032000065
-0.017752383 0.086986668 -0.032000065
-0.020260189 0.087190479 -0.032238178
-0.027479183 0.087733336 -0.032404825
-0.024080925 0.087558098 -0.032378238
-0.019744162 0.08752571 -0.032197796
-0.029008467 0.088251427 -0.03224425
-0.024255877 0.088457145 -0.032183841
-0.029645391 0.088691436 -0.032126963
-0.026628572 0.088761911 -0.032000065
-0.024853334 0.088761911 -0.032000065
-0.020421896 0.088662863 -0.032087948
-0.016129263 0.0888381 -0.032406155
-0.024080925 0.089241914 -0.032378238
-0.020098481 0.089040004 -0.032388411
-0.029008467 0.08994858 -0.03224425
-0.028076632 0.089885719 -0.0322873
-0.027479183 0.089523815 -0.032404825
-0.029645391 0.090430476 -0.032126963
-0.024255877 0.090095237 -0.032183841
-0.026628572 0.090537146 -0.032000065
-0.024853334 0.090537146 -0.032000065
-0.024080925 0.090925723 -0.032378238
-0.020098481 0.090720005 -0.032388411
-0.016129263 0.090514295 -0.032406155
-0.029008467 0.091645718 -0.03224425
-0.024255877 0.091733329 -0.032183841
-0.030179048 0.092312381 -0.032000065
-0.029645391 0.092169531 -0.032126963
-0.028403811 0.092312381 -0.032000065
-0.026628572 0.092312381 -0.032000065
-0.024853334 0.092312381 -0.032000065
-0.020098481 0.092399999 -0.032388411
-0.024080925 0.092609525 -0.032378238
-0.024255877 0.093371429 -0.032183841
-0.025630372 0.093657143 -0.032393262
-0.030179048 0.094087623 -0.032000065
-0.028403811 0.094087623 -0.032000065
-0.026628572 0.094087623 -0.032000065
-0.020098481 0.094080001 -0.032388411
-0.025630372 0.095360003 -0.032393262
-0.028403811 0.095862858 -0.032000065
-0.026628572 0.095862858 -0.032000065
-0.025705867 0.095857143 -0.03216185
-0.020098481 0.095760003 -0.032388411
-0.024255877 0.09664762 -0.032183841
-0.020098481 0.097440004 -0.032388411
-0.016129263 0.097219057 -0.032406155
-0.030179048 0.0976381 -0.032000065
-0.028403811 0.0976381 -0.032000065
-0.026628572 0.0976381 -0.032000065
-0.025705867 0.097600006 -0.03216185
-0.027479183 0.098476201 -0.032404825
-0.024255877 0.09828572 -0.032183841
-0.016129263 0.098895244 -0.032406155
-0.039055239 0.099413335 -0.032000065
-0.037280001 0.099413335 -0.032000065
-0.035504766 0.099413335 -0.032000065
-0.033729523 0.099413335 -0.032000065
-0.030179048 0.099413335 -0.032000065
-0.028403811 0.099413335 -0.032000065
-0.026628572 0.099413335 -0.032000065
-0.027479183 0.10026667 -0.032404825
-0.09799993 0.10082286 -0.032080002
-0.035529964 0.10053334 -0.032060299
-0.020098481 0.1008 -0.032388411
0.09799993 0.10082286 -0.032080002
-0.089850128 0.10132572 -0.032374851
-0.035504766 0.10118857 -0.032000065
-0.033729523 0.10118857 -0.032000065
-0.031954288 0.10118857 -0.032000065
-0.030179048 0.10118857 -0.032000065
-0.028403811 0.10118857 -0.032000065
-0.026628572 0.10118857 -0.032000065
-0.025705867 0.10108571 -0.03216185
-0.019744162 0.10125524 -0.032197796
-0.09799993 0.10235048 -0.032080002
-0.020098481 0.10248 -0.032388411
0.09799993 0.10235048 -0.032080002
-0.089850128 0.10286096 -0.032374851
-0.035504766 0.10296381 -0.032000065
-0.033729523 0.10296381 -0.032000065
-0.031954288 0.10296381 -0.032000065
-0.030179048 0.10296381 -0.032000065
-0.028403811 0.10296381 -0.032000065
-0.026628572 0.10296381 -0.032000065
-0.019744162 0.10297143 -0.032197796
-0.016228024 0.10262858 -0.032107592
-0.09799993 0.1038781 -0.032080002
-0.089850128 0.10439619 -0.032374851
-0.020098481 0.10416 -0.032388411
-0.016228024 0.10433906 -0.032107592
0.095999956 0.10413714 -0.032160003
-0.033729523 0.10473906 -0.032000065
-0.031954288 0.10473906 -0.032000065
-0.089850128 0.10593143 -0.032374851
0.095999956 0.10566857 -0.032160003
-0.089850128 0.10746667 -0.032374851
-0.03700006 0.10708571 -0.032125715
0.095999956 0.1072 -0.032160003
-0.03700006 0.10887048 -0.032125715
0.095999956 0.10873143 -0.032160003
-0.089850128 0.10900191 -0.032374851
0.095999956 0.11026286 -0.032160003
-0.089850128 0.11053715 -0.032374851
0.095999956 0.11179429 -0.032160003
-0.089850128 0.11207239 -0.032374851
0.095999956 0.11332572 -0.032160003
-0.089850128 0.11360763 -0.032374851
0.09799993 0.11457143 -0.032080002
-0.089850128 0.11514287 -0.032374851
0.09799993 0.11609905 -0.032080002
-0.089850128 0.1166781 -0.032374851
0.09799993 0.11762667 -0.032080002
-0.089850128 0.11821334 -0.032374851
0.095999956 0.11945143 -0.032160003
-0.089850128 0.11974858 -0.032374851
-0.017153934 -0.060066666 -0.031711578
-0.020547215 -0.058156192 -0.03158899
-0.017153934 -0.058350477 -0.031711578
-0.015160385 -0.05806667 -0.031741291
-0.019999921 -0.056990478 -0.031847622
-0.020547215 -0.056445718 -0.03158899
-0.015160385 -0.056407623 -0.031741291
-0.019999921 -0.055314288 -0.031847622
-0.020547215 -0.05473524 -0.03158899
-0.019999921 -0.053638097 -0.031847622
-0.020547215 -0.053024765 -0.03158899
-0.01077925 -0.052845716 -0.031881638
-0.019999921 -0.05196191 -0.031847622
-0.023090722 -0.051200002 -0.031994406
-0.020547215 -0.051314291 -0.03158899
-0.019999921 -0.050285716 -0.031847622
-0.023090722 -0.049493335 -0.031994406
-0.017999947 -0.048720002 -0.031920001
-0.014646193 -0.047780957 -0.031958427
-0.022000074 -0.047417145 -0.031611428
-0.017999947 -0.047040001 -0.031920001
-0.014646193 -0.046133336 -0.031958427
-0.020000041 -0.045561906 -0.031542856
-0.035647564 -0.045314286 -0.031743299
-0.015999913 -0.045462862 -0.031992383
-0.01077925 -0.044588573 -0.031881638
-0.016237982 -0.044285718 -0.031875171
-0.035647564 -0.043571427 -0.031743299
-0.020000041 -0.043809522 -0.031542856
-0.015999913 -0.043779049 -0.031992383
-0.015160385 -0.043135241 -0.031741291
-0.020000041 -0.042057142 -0.031542856
-0.023090722 -0.040960003 -0.031994406
-0.020000041 -0.040304761 -0.031542856
-0.023090722 -0.039253332 -0.031994406
-0.020000041 -0.038552381 -0.031542856
-0.016237982 -0.0372 -0.031875171
-0.016237982 -0.035428576 -0.031875171
-0.020000041 -0.033295237 -0.031542856
-0.020000041 -0.031542856 -0.031542856
-0.020000041 -0.028038096 -0.031542856
-0.020000041 -0.026285714 -0.031542856
-0.020000041 -0.024533333 -0.031542856
-0.022000074 -0.022830477 -0.031611428
-0.022000074 -0.021074288 -0.031611428
-0.019999921 0.031847622 -0.031847622
-0.019999921 0.033523809 -0.031847622
-0.019999921 0.035200004 -0.031847622
-0.01077925 0.03633143 -0.031881638
-0.019999921 0.03687619 -0.031847622
-0.014646193 0.037895244 -0.031958427
-0.020000041 0.038552381 -0.031542856
-0.017999947 0.038640004 -0.031920001
-0.014646193 0.039542861 -0.031958427
-0.020000041 0.040304761 -0.031542856
-0.017999947 0.040320002 -0.031920001
-0.016237982 0.040742859 -0.031875171
-0.014646193 0.041190479 -0.031958427
-0.019999921 0.041904766 -0.031847622
-0.020000041 0.042057142 -0.031542856
-0.016237982 0.042514287 -0.031875171
-0.014646193 0.042838097 -0.031958427
-0.021999955 0.043481905 -0.03177524
-0.015160385 0.043135241 -0.031741291
-0.020000041 0.043809522 -0.031542856
-0.016237982 0.044285718 -0.031875171
-0.014646193 0.044485718 -0.031958427
-0.015160385 0.044794288 -0.031741291
-0.021999955 0.045154288 -0.03177524
-0.020000041 0.045561906 -0.031542856
-0.016237982 0.046057146 -0.031875171
-0.014646193 0.046133336 -0.031958427
-0.019999921 0.046933334 -0.031847622
-0.022000074 0.047417145 -0.031611428
-0.022072712 0.047780957 -0.031768754
-0.016237982 0.047828577 -0.031875171
-0.014646193 0.047780957 -0.031958427
-0.021999955 0.048499048 -0.03177524
-0.025000095 0.049333334 -0.031714287
-0.022072712 0.049428575 -0.031768754
-0.014646193 0.049428575 -0.031958427
-0.016237982 0.049600001 -0.031875171
-0.021999955 0.050171427 -0.03177524
-0.022000074 0.050929524 -0.031611428
-0.022072712 0.051076196 -0.031768754
-0.016237982 0.051371429 -0.031875171
-0.014646193 0.051076196 -0.031958427
-0.021999955 0.051843811 -0.03177524
-0.025000095 0.052857146 -0.031714287
-0.022072712 0.052723814 -0.031768754
-0.014646193 0.052723814 -0.031958427
-0.024153985 0.053438094 -0.031835817
-0.021999955 0.05351619 -0.03177524
-0.022072712 0.054371431 -0.031768754
-0.014646193 0.054371431 -0.031958427
-0.025000095 0.054619052 -0.031714287
-0.024153985 0.055161905 -0.031835817
-0.021999955 0.055188574 -0.03177524
-0.025000095 0.056380957 -0.031714287
-0.022072712 0.056019049 -0.031768754
-0.024153985 0.056885716 -0.031835817
-0.021999955 0.056860954 -0.03177524
-0.022072712 0.057666671 -0.031768754
-0.025000095 0.058142859 -0.031714287
-0.024153985 0.058609523 -0.031835817
-0.021999955 0.058533337 -0.03177524
-0.022072712 0.059314292 -0.031768754
-0.022000074 0.059710477 -0.031611428
-0.024153985 0.060333334 -0.031835817
-0.021999955 0.060205717 -0.03177524
-0.022072712 0.060961906 -0.031768754
-0.022000074 0.061466668 -0.031611428
-0.024999917 0.061666675 -0.03166667
-0.022072712 0.062609531 -0.031768754
-0.024999917 0.06333334 -0.03166667
-0.022000074 0.063222855 -0.031611428
-0.022072712 0.064257152 -0.031768754
-0.022000074 0.064979054 -0.031611428
-0.024999917 0.065000005 -0.03166667
-0.024999917 0.06666667 -0.03166667
-0.022000074 0.066735245 -0.031611428
-0.022072712 0.067552388 -0.031768754
-0.024999917 0.068333343 -0.03166667
-0.022000074 0.068491429 -0.031611428
-0.018643558 0.068880007 -0.031548411
-0.028616115 0.069270477 -0.031532574
-0.022622703 0.069036193 -0.031536333
-0.022072712 0.069200002 -0.031768754
-0.024999917 0.070000008 -0.03166667
-0.022000074 0.07024762 -0.031611428
-0.028616115 0.07096 -0.031532574
-0.022622703 0.070720002 -0.031536333
-0.022072712 0.070847623 -0.031768754
-0.018643558 0.070560001 -0.031548411
-0.024999917 0.071666673 -0.03166667
-0.022000074 0.072003812 -0.031611428
-0.028616115 0.072649531 -0.031532574
-0.024999917 0.073333338 -0.03166667
-0.022000074 0.073760003 -0.031611428
-0.028616115 0.074339047 -0.031532574
-0.024999917 0.075000003 -0.03166667
-0.022000074 0.075516194 -0.031611428
-0.028616115 0.076028571 -0.031532574
-0.024999917 0.076666676 -0.03166667
-0.022622703 0.077455238 -0.031536333
-0.020000041 0.077104762 -0.031542856
-0.024999917 0.078333341 -0.03166667
-0.02552033 0.078811437 -0.031797346
-0.022622703 0.079139054 -0.031536333
-0.022000074 0.079028577 -0.031611428
-0.02552033 0.080453336 -0.031797346
-0.024999917 0.080000006 -0.03166667
-0.022622703 0.080822863 -0.031536333
-0.020000041 0.080609523 -0.031542856
-0.028616115 0.081097141 -0.031532574
-0.024999917 0.081666671 -0.03166667
-0.02552033 0.082095243 -0.031797346
-0.020000041 0.082361907 -0.031542856
-0.018643558 0.082320005 -0.031548411
-0.028616115 0.082786672 -0.031532574
-0.022622703 0.082506672 -0.031536333
-0.024999917 0.083333343 -0.03166667
-0.02552033 0.083737142 -0.031797346
-0.022622703 0.08419048 -0.031536333
-0.020000041 0.084114283 -0.031542856
-0.018643558 0.084000006 -0.031548411
-0.02552033 0.085379049 -0.031797346
-0.024999917 0.085000008 -0.03166667
-0.022622703 0.085874289 -0.031536333
-0.022000074 0.086053334 -0.031611428
-0.024999917 0.086666673 -0.03166667
-0.02552033 0.087020956 -0.031797346
-0.018643558 0.087360002 -0.031548411
-0.028616115 0.087855235 -0.031532574
-0.022622703 0.087558098 -0.031536333
-0.022000074 0.087809525 -0.031611428
-0.024999917 0.088333338 -0.03166667
-0.02552033 0.088662863 -0.031797346
-0.022622703 0.089241914 -0.031536333
-0.030093111 0.089714289 -0.031877309
-0.022000074 0.089565717 -0.031611428
-0.02552033 0.09030477 -0.031797346
-0.024999917 0.090000004 -0.03166667
-0.022622703 0.090925723 -0.031536333
-0.022000074 0.091321908 -0.031611428
-0.030093111 0.091508567 -0.031877309
-0.02552033 0.091946669 -0.031797346
-0.024999917 0.091666676 -0.03166667
-0.022622703 0.092609525 -0.031536333
-0.030093111 0.093302861 -0.031877309
-0.025000095 0.093380958 -0.031714287
-0.024999917 0.093333341 -0.03166667
-0.02552033 0.093588576 -0.031797346
-0.018643558 0.094080001 -0.031548411
-0.028616115 0.094613336 -0.031532574
-0.02699995 0.094782859 -0.031594284
-0.024153985 0.094809525 -0.031835817
-0.033571206 0.095400006 -0.031853113
-0.025000095 0.095142864 -0.031714287
-0.023090722 0.095573336 -0.031994406
0.10199994 0.095760003 -0.031920001
